0,0,0,0,0,0,0,0,0,0,0,0,0,0,0,0,0,0,0,0,0,5,15,25,30,35,40,40,40,40,40,45,50,50,65,70,70,75,75,75,75,75,75,70,75,75,80,80,85,85,85,85,90,90,85,85,85,90,95,130,130,140,110,100,95,100,95,95,100,110,110,110,110,115,115,115,110,115,110,100,90,85,75,85,90,90,85,70,60,65,85,85,115,115,135,135,120,115,150,155,120,105,110,130,130,100,100,120,130,120,120,110,120,110,110,100,100,90,85,80,70,80,70,65,65,60,55,50,50,45,40,40,30,30,35,35,25,25,15,15,15,5,10,10,5,0,0,0,0,5,15,30,25,20,5,5,10,30,25,20,15,45,60,90,100,95,70,55,75,80,75,70,65,65,70,70,65,65,65,65,55,55,55,55,50,45,50,60,60,55,60,65,60,45,35,35,35,35,45,65,65,40,50,45,45,50,60,60,55,55,50,45,40,15,15,15,15,15,15,15,15,15,15,15,5,5,10,10,10,5,0,0,0,0,0,0,0,0,0,0,0,0,0,0,0,0,0,0,0,0,0,0,0,0,0,0,0,0,0,0,0,0,0,0,0,0,0,0,0,0
0,0,0,0,0,0,0,0,0,0,0,0,0,0,0,0,0,0,0,0,0,5,15,25,25,30,35,35,40,35,15,40,40,50,50,65,70,70,70,70,70,70,70,70,65,65,65,75,80,80,85,85,85,90,90,90,85,90,95,105,135,135,130,95,90,90,90,75,90,95,80,105,120,120,115,115,110,105,110,105,90,90,80,80,85,85,85,85,70,80,90,100,115,110,140,145,135,125,165,170,130,120,110,140,120,110,120,130,130,120,110,110,110,110,100,110,120,100,90,85,80,85,80,70,70,70,70,60,60,50,50,45,40,45,50,45,35,40,35,30,30,30,20,15,15,5,5,5,5,5,20,25,15,5,5,15,50,35,30,25,20,55,95,95,95,90,65,55,90,85,80,75,70,70,70,70,65,65,70,65,65,60,60,60,55,55,60,65,60,65,65,65,50,45,40,35,40,35,40,65,50,45,50,45,40,65,60,60,60,45,40,40,40,5,15,25,20,15,15,15,15,15,15,15,15,10,10,5,10,0,0,0,0,0,0,0,0,0,0,0,0,0,0,0,0,0,0,0,0,0,0,0,0,0,0,0,0,0,0,0,0,0,0,0,0,0,0,0,0,0
0,0,0,0,0,0,0,0,0,0,0,0,0,0,0,0,0,0,0,0,0,5,5,15,15,10,25,30,10,20,10,10,35,40,45,55,55,65,65,65,65,65,65,65,65,65,65,65,65,80,80,80,85,85,90,90,90,90,90,95,110,135,135,95,90,85,75,75,85,90,85,90,125,115,110,115,110,110,100,110,85,85,80,65,85,80,75,75,80,90,100,95,110,135,145,125,130,125,170,170,125,120,140,140,120,120,130,130,120,110,100,110,100,110,110,120,120,100,100,100,80,80,90,90,80,75,75,70,70,65,60,55,55,55,55,50,45,45,40,40,35,35,30,30,20,15,15,10,10,10,5,0,0,0,5,30,50,35,30,30,35,70,95,90,95,75,75,105,100,95,90,85,75,75,70,70,70,70,70,65,65,65,65,65,65,60,65,65,70,65,65,55,50,50,45,40,45,40,45,75,70,50,45,45,40,40,60,60,60,50,45,25,15,5,25,25,20,15,15,15,15,15,15,15,15,10,10,5,5,0,0,0,0,0,0,0,0,0,0,0,0,0,0,0,0,0,0,0,0,0,0,0,0,0,0,0,0,0,0,0,0,0,0,0,0,0,0,0,0,0
0,0,0,0,0,0,0,0,0,0,0,0,0,0,0,0,0,0,0,0,0,0,0,5,5,5,5,5,5,5,5,5,5,15,35,45,55,55,60,60,60,60,65,60,60,65,60,60,65,70,75,80,80,75,90,90,90,90,85,85,95,135,140,95,90,85,85,80,80,85,85,100,115,120,95,120,110,115,110,100,95,95,70,75,80,85,80,85,85,80,90,110,115,145,125,115,125,170,165,165,130,135,150,140,130,130,130,130,120,130,110,120,120,120,120,120,130,120,110,110,90,90,100,100,85,85,80,80,80,70,75,70,65,60,55,50,50,45,45,40,40,40,35,35,30,20,15,10,5,5,0,0,0,0,5,45,50,40,30,35,55,95,95,90,85,90,100,100,100,100,95,90,80,75,70,70,65,65,70,70,70,70,70,70,70,70,70,70,70,65,60,55,55,50,50,45,50,50,55,80,45,40,45,45,40,50,65,60,60,50,20,15,20,10,25,25,20,15,15,15,15,15,15,15,15,10,10,10,5,0,0,0,0,0,0,0,0,0,0,0,0,0,0,0,0,0,0,0,0,0,0,0,0,0,0,0,0,0,0,0,0,0,0,0,0,0,0,0,0,0
0,0,0,0,0,0,0,0,0,0,0,0,0,0,0,0,0,0,0,0,0,0,0,0,0,0,0,0,0,0,0,0,0,5,10,30,45,50,55,55,60,60,60,60,60,60,60,60,60,65,70,70,75,80,80,90,90,90,90,85,90,110,135,105,85,85,85,85,85,85,100,105,115,110,110,110,115,115,110,110,105,90,85,70,85,85,85,80,85,85,95,100,130,135,120,115,125,145,170,145,130,145,170,120,140,140,140,140,130,140,130,130,130,120,130,130,120,120,110,110,100,90,110,110,90,80,80,90,85,80,80,70,65,65,65,55,55,50,50,45,45,45,40,40,35,25,20,15,10,5,0,0,0,0,45,60,50,45,35,60,100,100,95,90,85,90,95,95,100,100,100,95,85,75,70,70,65,70,75,75,75,75,75,75,70,70,70,70,70,65,60,60,55,55,50,50,55,60,80,75,50,40,50,45,40,45,65,65,65,50,25,15,15,25,15,25,25,15,15,15,15,15,15,15,15,15,15,5,0,0,0,0,0,0,0,0,0,0,0,0,0,0,0,0,0,0,0,0,0,0,0,0,0,0,0,0,0,0,0,0,0,0,0,0,0,0,0,0,0,0
0,0,0,0,0,0,0,0,0,0,0,0,0,0,0,0,0,0,0,0,0,0,0,0,0,0,0,0,0,0,0,0,0,0,5,10,30,40,45,50,55,55,55,55,55,60,55,55,60,65,65,60,70,75,80,80,90,85,90,85,85,110,135,105,90,90,90,90,95,100,100,100,105,105,105,115,120,115,110,110,105,100,85,80,80,85,85,85,85,85,90,105,125,120,125,140,135,165,170,135,135,165,160,140,160,150,150,140,130,140,140,140,140,130,140,140,120,110,100,120,100,100,120,100,80,80,90,85,80,85,85,75,75,70,65,65,65,60,55,55,50,50,45,40,35,25,20,5,5,0,0,0,5,5,50,75,80,85,60,95,105,95,90,85,85,80,85,90,95,100,105,95,90,80,75,70,70,70,80,75,85,85,80,75,75,75,75,70,65,60,60,55,55,55,55,55,55,75,80,70,50,40,55,45,45,50,65,70,60,55,30,20,25,30,20,30,30,15,15,15,15,15,15,15,15,15,15,10,0,0,0,0,0,0,0,0,0,0,0,0,0,0,0,0,0,0,0,0,0,0,0,0,0,0,0,0,0,0,0,0,0,0,0,0,0,0,0,0,0,0
0,0,0,0,0,0,0,0,0,0,0,0,0,0,0,0,0,0,0,0,0,0,0,0,0,0,0,0,0,0,0,0,0,0,0,5,10,30,35,35,40,35,50,45,40,55,55,55,55,60,60,60,65,65,70,75,85,80,85,85,90,100,125,100,85,85,85,90,100,100,95,100,95,105,105,115,115,110,110,110,105,100,85,80,85,85,90,85,85,85,100,110,130,115,125,135,135,160,175,160,160,160,140,150,160,150,140,150,140,150,150,150,130,120,130,130,120,100,100,110,100,110,120,110,80,100,100,90,90,90,90,90,80,80,75,75,70,65,65,60,55,45,40,40,40,35,20,10,5,0,0,5,10,35,50,80,95,95,105,110,95,90,90,80,70,70,75,75,85,90,100,100,90,85,80,75,75,75,75,90,85,85,80,80,75,75,70,70,70,70,60,55,55,55,55,60,65,80,85,65,55,55,55,35,45,50,70,75,60,55,30,35,30,35,35,30,25,15,15,15,25,20,5,15,15,5,5,5,5,0,0,0,0,0,0,0,0,0,0,0,0,0,0,0,0,0,0,0,0,0,0,0,0,0,0,0,0,0,0,0,0,0,0,0,0,0,0,0,0,0
0,0,0,0,0,0,0,0,0,0,0,0,0,0,0,0,0,0,0,0,0,0,0,0,0,0,0,0,0,0,0,0,0,0,0,5,5,15,20,30,30,25,40,45,35,45,55,55,55,55,60,55,55,60,65,70,70,75,75,80,85,95,105,100,90,90,90,90,95,100,95,95,95,95,95,110,115,115,115,110,100,100,95,85,85,85,95,85,85,100,105,110,125,120,120,135,135,155,160,180,170,150,150,180,160,150,140,150,150,150,160,150,120,130,130,130,110,100,100,100,100,120,120,120,110,100,100,90,100,100,110,100,90,90,90,85,80,75,70,65,50,45,45,45,40,25,20,10,5,5,5,20,15,50,50,75,100,100,95,100,90,80,65,55,50,45,65,70,60,55,70,105,95,90,80,80,80,80,80,95,90,90,85,80,80,75,70,70,70,70,65,60,55,65,60,60,70,90,80,60,55,55,50,40,35,50,75,65,40,40,30,35,25,35,35,35,30,25,15,15,25,25,15,5,5,5,5,10,5,0,0,0,0,0,0,0,0,0,0,0,0,0,0,0,0,0,0,0,0,0,0,0,0,0,0,0,0,0,0,0,0,0,0,0,0,0,0,0,0,0
0,0,0,0,0,0,0,0,0,0,0,0,0,0,0,0,0,0,0,0,0,0,0,0,0,0,0,0,0,0,0,0,0,0,0,0,0,5,10,15,20,30,25,30,35,30,40,40,50,50,55,60,60,60,65,65,70,70,70,75,80,85,95,105,105,95,100,95,100,105,100,100,100,105,110,110,115,115,120,110,105,100,100,85,85,85,100,100,100,100,105,115,115,115,125,125,145,140,165,190,160,150,160,160,150,160,150,150,150,170,160,140,130,140,130,120,100,80,90,100,110,120,130,120,110,100,100,100,100,100,110,100,100,100,95,95,85,80,75,55,55,55,55,45,40,35,25,15,15,10,30,30,40,5,70,80,100,100,100,70,70,60,45,35,30,35,40,10,5,55,70,110,105,95,85,85,85,85,90,100,95,90,80,80,80,80,75,75,70,70,70,70,70,70,65,65,75,90,80,65,60,55,50,45,40,55,75,75,40,40,40,40,30,20,30,35,30,25,30,30,25,15,15,10,5,10,10,15,10,10,5,0,0,0,0,0,0,0,0,0,0,0,0,0,0,0,0,0,0,0,0,0,0,0,0,0,0,0,0,0,0,0,0,0,0,0,0,0,0,0
0,0,0,0,0,0,0,0,0,0,0,0,0,0,0,0,0,0,0,0,0,0,0,0,0,0,0,0,0,0,0,0,0,0,0,0,0,0,5,10,5,5,5,10,15,25,30,40,40,40,45,40,50,50,60,65,65,65,65,70,75,75,85,90,100,100,110,110,105,105,100,100,100,105,110,110,115,115,120,110,105,100,105,90,90,95,100,95,100,100,110,115,120,120,130,135,130,140,180,190,195,180,175,160,160,160,160,150,170,180,160,150,140,140,130,120,80,60,90,100,100,120,140,100,90,110,110,100,100,100,110,110,100,105,105,100,90,90,65,60,55,50,50,50,40,35,25,25,25,15,40,15,35,70,50,55,65,65,70,75,50,50,40,35,35,30,20,15,10,65,95,110,105,95,90,90,90,90,90,100,95,95,85,85,85,80,80,80,75,75,75,80,80,75,70,75,85,80,75,65,60,55,50,45,45,55,75,75,40,55,45,40,30,20,25,15,25,30,30,25,5,10,15,10,5,5,10,20,20,5,0,0,0,0,0,0,0,0,0,0,0,0,0,0,0,0,0,0,0,0,0,0,0,0,0,0,0,0,0,0,0,0,0,0,0,0,0,0,0,0
0,0,0,0,0,0,0,0,0,0,0,0,0,0,0,0,0,0,0,0,0,0,0,0,0,0,0,0,0,0,0,0,0,0,0,0,0,0,0,5,5,5,5,0,5,10,20,35,25,35,45,45,35,35,35,55,60,60,60,65,65,65,60,70,85,100,85,100,105,105,105,105,105,110,110,115,115,120,120,115,110,110,105,100,90,95,95,100,95,110,115,115,125,125,135,145,130,145,175,190,185,185,165,175,170,160,170,170,180,170,160,150,150,150,130,90,70,70,100,120,90,140,120,110,110,110,110,110,100,120,130,120,120,110,105,100,95,70,70,65,60,50,60,50,45,40,35,35,40,40,5,5,70,35,30,50,50,55,55,55,50,45,40,40,40,35,30,20,65,90,110,115,110,100,100,95,95,110,110,105,100,90,85,90,85,85,80,80,80,80,85,85,80,80,75,85,80,75,70,65,65,60,55,50,55,60,75,55,55,50,40,35,25,35,25,30,15,30,25,20,10,15,15,15,10,5,10,20,15,10,5,0,0,0,0,0,0,0,0,0,0,5,0,10,5,15,5,0,0,0,0,0,0,0,0,0,0,0,0,0,0,0,0,0,0,0,0,0,0,0
0,0,0,0,0,0,0,0,0,0,0,0,0,0,0,0,0,0,0,0,0,0,0,0,0,0,0,0,0,0,0,0,0,0,0,0,0,0,0,0,0,0,0,0,0,5,15,20,25,25,35,35,40,35,20,35,50,55,60,60,60,60,55,55,60,50,70,75,100,95,100,105,110,110,120,120,120,120,125,125,120,110,105,100,105,100,95,95,95,120,110,120,130,135,150,135,135,165,155,150,190,175,170,190,155,160,180,190,180,170,150,140,150,100,100,70,60,60,90,120,100,130,80,100,120,110,120,120,130,140,120,120,120,120,110,105,90,80,75,65,60,65,60,60,45,40,40,25,25,30,20,15,20,35,10,20,40,45,45,45,50,40,45,45,40,40,35,35,75,105,115,115,110,105,105,115,115,115,115,110,105,95,90,90,85,85,85,80,85,85,85,85,80,75,80,85,80,80,75,70,65,60,55,55,60,65,80,75,60,45,35,35,35,30,20,20,20,20,25,20,15,15,15,15,15,10,5,10,20,10,5,5,5,5,0,0,0,0,0,10,5,10,5,10,35,30,5,0,0,0,0,0,0,0,0,0,0,0,0,0,0,0,0,0,0,0,0,0,0,0
0,0,0,0,0,0,0,0,0,0,0,0,0,0,0,0,0,0,0,0,0,0,0,0,0,0,0,0,0,0,0,0,0,0,0,0,0,0,0,0,0,0,0,0,0,0,5,10,20,20,20,30,25,30,30,25,35,45,55,55,55,55,50,50,45,40,40,60,80,90,95,105,110,115,125,120,125,125,125,125,120,120,115,105,110,110,95,100,105,110,110,120,125,135,150,135,145,160,150,150,190,165,175,185,165,160,185,180,170,150,160,120,100,90,120,100,70,80,100,100,120,110,80,90,120,130,140,140,140,110,110,120,110,110,110,95,85,85,70,65,65,65,60,45,50,35,20,25,40,40,35,35,25,35,15,15,20,20,15,35,40,40,50,50,45,40,40,40,35,115,115,115,110,110,115,130,120,120,115,110,105,95,90,90,85,85,85,85,85,90,90,90,80,80,90,85,85,80,75,75,65,60,60,55,60,80,75,75,60,45,35,35,35,30,25,30,20,20,30,20,5,15,20,20,15,15,5,10,15,15,15,5,5,5,0,0,0,0,10,10,10,20,5,10,35,30,5,10,0,0,0,0,0,0,0,0,0,0,0,0,0,0,0,0,0,0,0,0,0,0
0,0,0,0,0,0,0,0,0,0,0,0,0,0,0,0,0,0,0,0,0,0,0,0,0,0,0,0,0,0,0,0,0,0,0,0,0,0,0,0,0,0,0,0,0,0,0,5,10,10,15,20,25,30,20,25,30,35,45,50,50,50,50,50,45,40,45,55,70,85,95,105,105,120,120,125,125,125,125,130,120,125,120,110,115,115,95,105,100,115,120,120,125,135,145,145,140,160,150,150,195,175,180,190,160,155,185,180,180,130,160,150,140,100,140,120,110,100,90,80,120,100,80,110,130,140,140,120,120,110,110,110,110,110,100,90,90,85,75,70,70,60,55,45,45,30,30,40,45,45,15,35,30,40,30,20,10,10,20,35,45,45,55,50,40,40,40,40,40,125,120,115,115,120,130,130,125,120,115,110,105,100,95,90,85,85,80,80,85,90,90,90,85,95,90,90,85,85,80,75,70,60,60,60,65,70,70,75,50,40,40,40,40,35,35,30,20,20,20,10,20,25,20,20,20,20,15,5,15,20,15,10,5,5,0,0,0,0,10,10,20,10,20,70,10,75,10,10,0,0,0,0,0,0,0,0,0,0,0,0,0,0,0,0,0,0,0,0,0,0
0,0,0,0,0,0,0,0,0,0,0,0,0,0,0,0,0,0,0,0,0,0,0,0,0,0,0,0,0,0,0,0,0,0,0,0,0,0,0,0,0,0,0,0,0,0,0,0,0,0,5,5,5,5,10,15,5,20,30,50,50,50,50,45,45,45,50,55,60,75,100,105,110,115,115,120,125,125,130,130,130,120,125,120,120,120,110,115,115,115,120,120,125,140,145,150,140,165,150,145,200,190,195,180,150,150,170,155,170,140,140,160,150,150,140,120,90,80,80,80,130,80,110,140,140,130,110,100,110,120,120,110,100,100,100,90,90,80,70,70,65,60,55,50,45,35,45,35,35,35,25,45,90,70,30,20,10,10,10,30,25,40,50,35,30,45,45,45,45,90,125,120,120,130,130,130,125,120,115,110,105,100,95,90,85,85,85,80,80,90,90,90,95,90,90,90,90,85,80,75,70,60,65,65,65,60,60,80,50,45,45,40,40,35,35,30,25,20,20,20,20,30,25,25,20,20,20,20,15,20,20,20,10,5,5,10,5,5,15,15,10,60,70,60,70,100,65,5,0,0,0,0,0,0,0,0,0,0,0,0,0,0,0,0,0,0,0,0,0,0
0,0,0,0,0,0,0,0,0,0,0,0,0,0,0,0,0,0,0,0,0,0,0,0,0,0,0,0,0,0,0,0,0,0,0,0,0,0,0,0,0,0,0,0,0,0,0,0,0,0,0,0,0,0,5,5,5,5,15,35,45,50,50,50,50,55,55,60,60,65,95,105,115,115,110,115,125,130,130,135,135,130,120,130,120,120,115,120,120,110,120,125,120,145,145,155,160,175,145,150,185,195,190,160,145,145,190,175,140,130,150,170,170,140,120,90,80,80,70,70,130,110,140,120,100,90,90,80,100,110,110,100,100,100,105,95,95,85,80,70,60,60,55,55,45,40,40,40,40,40,30,25,55,75,40,25,20,25,15,5,20,45,45,40,40,55,50,45,50,135,130,125,130,130,130,130,120,115,110,110,105,100,95,90,85,90,85,85,80,90,90,100,100,90,90,90,85,85,80,75,75,70,60,65,70,60,85,80,55,50,45,40,40,40,35,30,25,30,20,25,30,30,25,25,25,35,35,20,30,15,5,15,10,10,15,10,10,5,25,45,5,20,60,100,65,30,15,30,5,0,0,0,0,0,0,0,0,0,0,0,0,0,0,0,0,0,0,0,0,0
0,0,0,0,0,0,0,0,0,0,0,0,0,0,0,0,0,0,0,0,0,0,0,0,0,0,0,0,0,0,0,0,0,0,0,0,0,0,0,0,0,0,0,0,0,0,0,0,0,0,0,0,0,0,0,0,5,5,10,35,40,45,50,50,50,55,55,60,60,65,85,105,115,115,110,115,125,130,135,140,140,125,125,130,125,120,120,130,125,120,125,125,125,135,170,160,165,160,155,155,195,175,190,155,135,150,190,140,120,120,180,190,150,130,120,100,80,70,70,120,170,150,120,90,60,70,80,90,80,80,90,100,100,100,90,100,90,90,80,70,65,60,60,60,45,45,40,40,40,40,40,25,35,35,40,35,25,15,10,15,25,55,50,45,55,55,55,55,100,135,135,130,135,135,130,120,115,115,115,110,105,100,95,90,90,90,85,85,85,90,100,100,95,90,90,90,85,80,75,60,70,70,70,70,70,70,85,65,55,50,45,40,40,40,35,30,25,30,25,30,30,15,30,30,30,35,35,25,35,20,10,5,10,15,20,20,5,5,5,15,25,30,45,100,90,10,4,15,15,0,0,0,0,0,0,0,0,0,0,0,0,0,0,0,0,0,0,0,0,0
0,0,0,0,0,0,0,0,0,0,0,0,0,0,0,0,0,0,0,0,0,0,0,0,0,0,0,0,0,0,0,0,0,0,0,0,0,0,0,0,0,0,0,0,0,0,0,0,0,0,0,0,0,0,0,0,0,0,5,10,35,45,45,50,55,55,55,60,60,65,90,100,120,120,115,120,125,125,135,135,135,135,140,135,130,125,130,125,120,130,145,120,130,155,165,155,160,155,160,160,190,165,180,160,135,170,185,135,135,180,200,160,140,120,110,100,90,80,80,100,160,120,90,60,60,70,90,90,70,70,90,90,80,90,95,105,95,90,75,75,70,65,60,60,45,45,40,35,35,35,25,15,10,5,10,30,30,25,15,30,45,55,30,20,45,40,60,55,110,140,140,140,135,130,125,120,115,120,120,115,110,105,100,95,95,90,90,95,95,100,105,100,95,95,90,90,85,80,75,55,65,75,75,75,75,80,80,65,60,55,45,45,40,45,40,30,35,35,30,35,25,15,25,35,35,35,35,40,40,15,10,10,5,5,5,5,10,5,5,5,5,10,10,20,10,10,1,5,5,0,0,0,0,0,0,0,0,0,0,0,0,0,0,0,0,0,0,0,0,0
0,0,0,0,0,0,0,0,0,0,0,0,0,0,0,0,0,0,0,0,0,0,0,0,0,0,0,0,0,0,0,0,0,0,0,0,0,0,0,0,0,0,0,0,0,0,0,0,0,0,0,0,0,0,0,0,0,0,0,5,25,40,45,50,55,55,60,60,60,70,85,100,125,125,115,115,115,120,130,130,130,135,145,145,140,135,125,120,125,125,150,135,140,175,155,150,155,160,165,180,170,155,155,180,140,155,155,145,140,190,180,140,130,100,100,110,100,90,100,180,120,90,70,60,60,70,90,80,70,80,70,80,90,100,105,110,100,95,85,80,70,70,65,45,45,45,45,40,45,45,35,20,25,5,0,20,30,30,20,10,15,85,15,50,50,45,65,65,140,145,145,145,140,135,125,125,120,120,120,120,115,110,105,100,95,95,95,105,105,110,105,105,100,95,90,90,85,60,70,70,70,75,75,80,80,90,75,70,60,55,45,40,40,45,40,35,35,35,20,35,25,25,35,40,35,30,35,30,35,45,35,5,10,5,5,10,5,5,15,0,0,0,0,10,0,0,4,5,5,0,0,0,0,0,0,0,0,0,0,0,0,0,0,0,0,0,0,0,0,0
0,0,0,0,0,0,0,0,0,0,0,0,0,0,0,0,0,0,0,0,0,0,0,0,0,0,0,0,0,0,0,0,0,0,0,0,0,0,0,0,0,0,0,0,0,0,0,0,0,0,0,0,0,0,0,0,0,0,0,0,5,20,35,45,50,55,55,60,60,65,80,90,110,125,120,115,110,115,125,130,130,130,140,145,145,160,135,130,130,130,155,145,170,150,145,145,150,160,175,185,165,155,165,175,160,155,175,145,180,190,150,130,110,110,100,110,120,100,110,180,110,80,70,60,60,80,90,90,90,80,90,100,100,110,115,105,100,95,90,75,75,70,65,40,40,50,50,45,45,45,30,25,15,10,5,5,5,30,30,20,85,70,35,25,50,50,65,145,155,150,150,145,140,135,130,130,120,110,115,115,115,115,105,105,105,105,110,110,115,110,110,105,105,95,90,90,85,70,70,75,75,75,80,80,85,105,80,65,60,55,50,40,40,45,45,40,40,35,25,35,35,25,35,40,45,30,35,40,45,45,40,10,5,5,5,5,5,5,5,0,0,0,0,0,0,4,39,25,5,0,0,0,0,0,0,0,0,0,0,0,0,0,0,0,0,0,0,0,0,0
0,0,0,0,0,0,0,0,0,0,0,0,0,0,0,0,0,0,0,0,0,0,0,0,0,0,0,0,0,0,0,0,0,0,0,0,0,0,0,0,0,0,0,0,0,0,0,0,0,0,0,0,0,0,0,0,0,0,0,0,0,5,25,35,45,50,60,65,60,65,75,85,100,125,120,115,115,115,120,125,115,120,125,135,150,150,160,135,140,135,140,160,170,150,145,145,150,165,190,175,170,160,160,175,180,155,155,170,180,175,140,120,110,110,110,110,110,110,150,140,100,90,90,70,90,90,80,90,90,100,110,100,110,110,100,100,100,85,85,80,75,75,70,60,55,50,50,45,45,40,35,20,6,15,25,30,28,30,30,30,90,90,50,20,95,100,160,160,155,150,150,150,145,140,135,120,110,115,105,115,120,115,115,110,110,115,120,115,115,115,115,110,85,90,90,80,85,75,70,75,75,80,80,85,90,110,75,65,60,55,55,50,45,45,45,45,40,35,30,35,35,30,35,45,45,35,30,30,50,55,45,20,5,5,5,5,5,10,5,0,0,0,5,5,30,5,10,5,0,0,0,0,0,0,0,0,0,0,0,0,0,0,0,0,0,0,0,0,0,0
0,0,0,0,0,0,0,0,0,0,0,0,0,0,0,0,0,0,0,0,0,0,0,0,0,0,0,0,0,0,0,0,0,0,0,0,0,0,0,0,0,0,0,0,0,0,0,0,0,0,0,0,0,0,0,0,0,0,0,0,0,0,5,25,35,40,55,60,60,65,70,80,90,110,125,115,115,115,115,120,110,115,115,125,140,150,165,175,145,140,140,160,165,150,150,145,165,165,190,170,175,165,165,165,185,180,165,195,180,155,140,120,120,100,100,100,130,140,160,130,110,100,90,90,90,80,70,90,100,110,110,110,100,95,105,100,100,85,90,90,85,85,70,55,55,50,50,45,50,45,40,20,12,15,30,5,30,32,30,35,90,95,105,130,140,160,160,155,155,155,155,155,145,130,120,105,80,95,15,100,110,120,120,115,125,130,125,120,115,115,95,100,90,85,85,80,80,80,65,70,60,80,80,80,90,110,80,65,60,60,55,55,50,45,50,45,40,35,35,40,35,35,35,40,40,45,40,35,45,55,45,35,10,5,5,2,3,16,5,5,0,15,10,5,5,15,5,0,0,0,0,0,0,0,0,0,0,0,0,0,0,0,0,0,0,0,0,0,0,0
0,0,0,0,0,0,0,0,0,0,0,0,0,0,0,0,0,0,0,0,0,0,0,0,0,0,0,0,0,0,0,0,0,0,0,0,0,0,0,0,0,0,0,0,0,0,0,0,0,0,0,0,0,0,0,0,0,0,0,0,5,5,10,15,20,35,50,60,60,60,70,75,85,110,115,115,115,120,120,125,115,115,115,120,135,155,155,170,170,145,155,145,165,150,150,150,155,165,175,180,180,170,165,165,175,185,200,175,180,150,130,120,100,100,110,130,140,140,140,120,110,100,100,90,90,80,100,80,100,110,100,110,105,105,100,100,105,90,105,105,90,75,60,55,55,55,50,55,50,40,35,31,8,4,3,5,30,26,5,10,10,75,105,105,105,160,170,170,165,165,160,135,120,95,90,35,30,20,15,10,90,125,125,125,130,130,120,120,120,95,95,100,90,85,80,85,80,80,75,60,65,75,75,80,80,105,105,70,65,60,55,55,55,50,55,45,40,35,35,40,30,40,40,45,40,35,45,45,50,55,60,40,25,10,5,5,5,5,5,5,0,5,5,5,5,0,0,0,0,0,0,0,0,0,0,0,0,0,0,0,0,0,0,0,0,0,0,0,0,0
0,0,0,0,0,0,0,0,0,0,0,0,0,0,0,0,0,0,0,0,0,0,0,0,0,0,0,0,0,0,0,0,0,0,0,0,0,0,0,0,0,0,0,0,0,0,0,0,0,0,0,0,0,0,0,0,0,0,0,0,5,5,10,15,25,30,40,55,55,60,70,75,85,100,110,115,115,120,120,125,120,115,120,120,125,135,160,165,170,165,155,155,170,155,150,140,165,170,190,180,180,175,170,170,170,185,205,175,185,135,145,110,90,100,150,160,140,130,120,110,110,100,100,100,100,100,100,100,100,80,90,95,90,100,85,80,120,110,110,100,95,70,65,60,60,60,55,55,45,35,20,25,5,15,5,10,5,0,0,0,0,0,10,10,25,10,10,10,60,110,90,40,10,20,10,5,15,5,5,15,90,130,130,135,130,125,125,105,100,95,95,95,95,85,80,85,85,85,70,55,75,75,75,80,85,105,80,70,65,65,60,55,55,50,55,50,45,40,45,35,35,40,45,45,45,40,45,40,50,60,60,45,35,10,10,5,10,20,10,5,3,5,10,5,0,0,0,0,0,0,0,0,0,0,0,0,0,0,0,0,0,0,0,0,0,0,0,0,0,0
0,0,0,0,0,0,0,0,0,0,0,0,0,0,0,0,0,0,0,0,0,0,0,0,0,0,0,0,0,0,0,0,0,0,0,0,0,0,0,0,0,0,0,0,0,0,0,0,0,0,0,0,0,0,0,0,0,0,0,0,0,5,10,15,20,25,35,50,55,60,65,75,80,95,105,110,110,115,120,125,125,120,120,120,125,135,145,165,175,175,160,160,170,165,165,160,165,180,185,170,170,175,180,180,175,190,185,180,185,150,135,110,110,140,180,150,140,130,100,100,110,110,100,90,100,90,90,100,80,100,90,85,75,80,80,85,125,125,110,100,90,80,70,65,65,60,60,55,45,35,18,15,20,22,5,5,0,0,0,0,0,0,0,0,0,0,0,0,10,50,10,10,0,0,0,0,0,0,0,20,110,135,135,135,130,125,110,105,100,95,95,90,90,80,75,80,85,85,80,70,75,80,80,80,100,110,85,75,70,65,60,55,55,55,55,50,45,45,50,45,40,45,45,50,50,40,50,50,50,55,60,60,45,15,10,10,10,10,25,15,5,20,10,5,5,5,0,0,0,0,0,0,0,0,0,0,0,0,0,0,0,0,0,0,0,0,0,0,0,0
0,0,0,0,0,0,0,0,0,0,0,0,0,0,0,0,0,0,0,0,0,0,0,0,0,0,0,0,0,0,0,0,0,0,0,0,0,0,0,0,0,0,0,0,0,0,0,0,0,0,0,0,0,0,0,0,0,0,0,0,0,5,10,15,20,30,35,45,55,55,60,70,80,95,105,105,110,110,120,120,120,115,120,110,125,140,155,150,160,170,165,160,175,155,165,165,175,185,185,170,175,170,185,185,190,195,205,205,175,155,140,100,140,160,150,130,140,110,80,90,100,100,60,60,100,100,100,100,90,100,90,75,75,75,75,130,125,120,115,100,95,80,75,70,70,70,65,55,45,36,28,17,28,13,5,0,0,0,0,0,0,0,0,0,0,0,0,0,0,0,0,0,0,0,0,0,0,0,5,90,140,140,135,135,120,110,105,100,100,95,90,90,85,80,75,70,90,85,80,75,80,80,80,75,80,110,85,80,70,65,65,60,60,60,55,55,50,45,50,50,45,50,50,50,40,25,35,45,35,40,45,50,55,30,10,10,10,10,10,10,5,20,30,15,10,5,5,0,0,0,0,0,0,0,0,0,0,0,0,0,0,0,0,0,0,0,0,0,0,0
0,0,0,0,0,0,0,0,0,0,0,0,0,0,0,0,0,0,0,0,0,0,0,0,0,0,0,0,0,0,0,0,0,0,0,0,0,0,0,0,0,0,0,0,0,0,0,0,0,0,0,0,0,0,0,0,0,0,0,0,0,0,5,15,15,25,30,40,50,55,60,65,75,90,100,105,110,110,115,110,105,105,105,100,100,130,145,150,150,150,155,160,170,170,165,165,170,170,185,165,180,175,185,195,190,200,215,190,180,160,140,150,180,160,140,120,130,90,80,80,90,90,60,50,100,100,100,90,90,90,95,85,85,85,115,135,120,120,120,100,95,85,80,75,75,70,60,55,50,35,32,24,30,13,10,5,1,1,1,0,0,0,0,0,0,0,0,0,0,0,0,0,0,0,0,0,0,5,90,140,140,140,135,130,120,110,110,105,100,95,95,90,85,85,80,75,90,85,80,80,85,85,80,75,90,110,120,80,70,65,65,60,55,60,60,55,50,50,50,50,50,55,55,55,35,35,40,40,40,45,45,55,45,50,20,15,10,10,35,15,10,35,10,10,5,5,5,10,0,0,0,0,0,0,0,0,0,0,0,0,0,0,0,0,0,0,0,0,0,0
0,0,0,0,0,0,0,0,0,0,0,0,0,0,0,0,0,0,0,0,0,0,0,0,0,0,0,0,0,0,0,0,0,0,0,0,0,0,0,0,0,0,0,0,0,0,0,0,0,0,0,0,0,0,0,0,0,0,0,0,0,0,5,5,5,5,20,30,40,50,55,65,70,85,95,105,110,115,115,110,100,100,105,105,105,120,140,145,150,160,150,160,170,170,165,160,170,170,175,185,185,180,180,180,215,205,205,195,190,125,140,190,190,140,110,110,110,80,70,70,70,80,70,70,120,110,100,90,90,100,100,100,105,85,130,130,125,105,110,100,90,80,90,95,90,80,75,65,55,45,45,39,27,26,10,11,11,9,1,3,1,2,1,0,0,0,0,0,0,0,0,0,0,0,0,0,5,40,120,140,140,135,135,130,120,115,115,115,110,100,100,95,90,85,85,80,90,90,90,80,90,90,85,80,90,105,120,85,85,80,70,65,65,65,60,60,55,55,55,55,55,40,55,60,55,50,50,45,45,50,55,60,60,50,50,30,15,30,40,20,30,5,10,5,5,5,5,5,5,10,0,0,0,0,0,0,0,0,0,0,0,0,0,0,0,0,0,0,0,0
0,0,0,0,0,0,0,0,0,0,0,0,0,0,0,0,0,0,0,0,0,0,0,0,0,0,0,0,0,0,0,0,0,0,0,0,0,0,0,0,0,0,0,0,0,0,0,0,0,0,0,0,0,0,0,0,0,0,0,0,0,0,0,5,5,5,10,20,30,30,35,55,65,65,80,85,100,95,110,110,110,110,110,110,110,110,130,140,155,150,160,155,165,165,160,165,170,175,175,185,180,180,185,180,200,215,205,195,200,180,165,210,190,140,100,110,110,80,70,60,60,70,90,110,130,110,100,100,100,110,100,110,120,135,120,130,125,130,110,100,110,120,105,105,100,90,85,75,60,50,40,37,33,33,14,12,12,11,2,4,2,4,1,0,0,0,0,0,0,0,0,0,0,0,0,0,10,70,130,135,140,135,130,120,120,115,115,115,110,105,100,95,95,90,85,85,90,95,90,80,90,90,90,85,90,90,95,115,85,80,75,70,70,70,65,60,55,60,55,55,50,45,60,60,55,50,45,50,50,50,55,55,60,55,45,40,35,25,30,40,15,15,10,5,5,5,5,10,10,5,0,0,0,0,0,0,0,0,0,0,0,0,0,0,0,0,0,0,0,0
0,0,0,0,0,0,0,0,0,0,0,0,0,0,0,0,0,0,0,0,0,0,0,0,0,0,0,0,0,0,0,0,0,0,0,0,0,0,0,0,0,0,0,0,0,0,0,0,0,0,0,0,0,0,0,0,0,0,0,0,0,0,0,5,10,10,15,15,20,20,25,35,50,45,45,70,80,100,105,110,105,110,110,115,110,120,120,125,145,155,160,160,150,165,175,175,165,165,175,180,185,185,175,175,195,205,220,200,190,195,200,215,150,140,100,100,100,90,80,70,80,90,100,130,120,110,100,120,120,140,130,130,120,135,140,125,140,135,115,135,135,130,120,105,105,100,90,85,75,60,60,34,39,33,21,13,15,12,15,12,12,6,2,0,0,0,0,0,0,0,0,0,0,0,0,0,50,110,130,135,140,130,100,90,100,110,110,110,110,105,100,95,90,90,85,90,80,90,85,75,90,85,85,80,85,85,85,100,115,95,75,70,70,70,65,60,55,55,55,55,55,55,65,60,50,50,50,50,50,45,45,50,50,45,40,35,35,20,40,40,30,15,15,20,5,5,5,5,5,0,0,0,0,0,0,0,0,0,0,0,0,0,0,0,0,0,0,0,0,0
0,0,0,0,0,0,0,0,0,0,0,0,0,0,0,0,0,0,0,0,0,0,0,0,0,0,0,0,0,0,0,0,0,0,0,0,0,0,0,0,0,0,0,0,0,0,0,0,0,0,0,0,0,0,0,0,0,0,0,0,0,0,0,0,5,10,10,15,15,15,15,25,15,20,15,40,50,55,50,75,105,95,110,110,115,115,120,120,135,150,155,160,145,165,160,170,160,160,185,185,180,185,190,185,195,210,220,210,205,200,210,165,160,130,100,100,100,110,80,80,100,90,100,110,110,100,120,140,130,130,120,120,130,120,155,135,150,150,120,140,140,130,130,130,120,100,100,90,80,80,60,60,47,30,27,34,30,14,24,21,11,9,1,0,0,0,0,0,0,0,0,0,0,0,0,0,100,110,120,130,140,100,15,80,90,100,90,100,110,105,100,95,90,90,90,95,85,85,90,85,90,90,85,85,85,90,80,85,105,100,70,70,70,70,70,65,50,55,55,50,45,50,70,60,50,50,50,50,50,50,50,45,55,50,35,40,40,30,15,30,40,30,10,15,15,5,5,5,0,0,0,0,0,0,0,0,0,0,0,0,0,0,0,0,0,0,0,0,0,0
0,0,0,0,0,0,0,0,0,0,0,0,0,0,0,0,0,0,0,0,0,0,0,0,0,0,0,0,0,0,0,0,0,0,0,0,0,0,0,0,0,0,0,0,0,0,0,0,0,0,0,0,0,0,0,0,0,0,0,0,0,0,0,0,0,5,10,15,15,10,10,10,10,10,10,20,30,30,40,60,75,85,95,110,110,115,120,125,130,130,150,165,160,165,155,180,165,175,180,185,175,175,190,185,195,210,220,210,215,210,190,175,160,130,110,100,110,110,110,110,90,90,90,90,70,90,120,140,130,120,140,130,130,120,120,150,160,120,130,140,140,140,150,140,120,110,100,90,80,80,70,60,60,46,43,40,36,34,26,20,7,15,3,1,0,0,0,0,0,0,0,0,0,0,0,0,10,120,120,120,130,90,40,90,90,90,80,80,100,110,105,95,95,90,95,95,85,90,90,90,85,90,85,85,85,80,75,75,90,115,75,70,70,70,70,65,60,50,55,45,45,70,70,55,50,55,55,50,50,50,50,50,55,60,55,40,45,35,25,25,30,40,15,30,5,10,5,5,5,0,0,0,0,0,0,0,0,0,0,0,0,0,0,0,0,0,0,0,0,0
0,0,0,0,0,0,0,0,0,0,0,0,0,0,0,0,0,0,0,0,0,0,0,0,0,0,0,0,0,0,0,0,0,0,0,0,0,0,0,0,0,0,0,0,0,0,0,0,0,0,0,0,0,0,0,0,0,0,0,0,0,0,0,0,0,0,5,10,10,10,10,10,10,10,10,15,20,25,40,60,65,75,80,85,75,90,120,120,130,130,140,155,160,160,160,175,175,180,165,195,175,170,190,185,200,205,215,205,220,210,160,160,140,140,130,110,110,110,110,100,90,80,80,90,80,90,140,150,130,140,150,120,120,120,130,170,140,130,140,140,140,150,150,130,120,120,110,100,90,80,70,65,60,60,39,43,39,37,28,31,29,9,4,2,1,0,0,0,0,0,0,0,0,0,0,0,5,5,70,30,30,70,80,110,100,80,80,80,110,110,100,95,100,95,95,95,95,95,90,90,85,90,90,90,80,80,75,75,85,115,70,75,75,75,75,70,60,50,50,45,50,55,70,60,55,60,60,60,55,55,55,55,60,60,60,55,35,50,45,30,45,20,15,10,5,15,5,5,5,5,5,0,0,0,0,0,0,0,0,0,0,0,0,0,0,0,0,0,0,0
0,0,0,0,0,0,0,0,0,0,0,0,0,0,0,0,0,0,0,0,0,0,0,0,0,0,0,0,0,0,0,0,0,0,0,0,0,0,0,0,0,0,0,0,0,0,0,0,0,0,0,0,0,0,0,0,0,0,0,0,0,0,0,0,0,0,5,10,10,15,10,10,10,10,10,15,20,30,45,50,60,70,75,70,80,100,115,115,120,130,130,140,155,165,160,175,180,180,180,190,180,185,185,180,195,190,215,210,210,205,160,155,145,150,140,130,120,120,110,100,100,90,90,90,80,100,150,150,140,130,120,110,110,120,130,150,150,140,120,130,130,160,150,130,120,130,110,110,100,80,70,65,60,60,46,43,44,44,40,34,34,31,15,11,1,3,0,0,0,0,0,0,0,0,0,0,0,0,5,15,30,60,110,120,100,50,80,100,110,110,100,100,105,105,105,100,100,100,95,95,90,90,90,90,85,70,75,75,75,115,70,75,75,70,75,70,65,55,55,45,40,65,70,70,60,65,65,60,60,55,55,55,50,45,60,35,50,45,45,60,70,55,25,15,5,5,5,5,5,0,0,0,0,0,0,0,0,0,0,0,0,0,0,0,0,0,0,0,0,0
0,0,0,0,0,0,0,0,0,0,0,0,0,0,0,0,0,0,0,0,0,0,0,0,0,0,0,0,0,0,0,0,0,0,0,0,0,0,0,0,0,0,0,0,0,0,0,0,0,0,0,0,0,0,0,0,0,0,0,0,0,0,0,0,0,0,5,10,10,10,10,10,10,10,10,15,15,30,40,50,60,65,70,70,75,90,100,115,115,120,125,130,140,170,165,160,170,180,175,195,180,170,195,180,180,175,200,195,200,195,160,135,140,140,140,130,120,120,110,110,100,100,90,100,100,130,160,140,90,120,120,120,120,120,140,150,160,140,110,100,110,150,150,140,130,130,120,100,90,90,70,70,60,60,60,45,47,46,43,37,36,29,28,28,10,6,0,0,0,0,0,0,0,0,0,0,0,0,0,10,15,90,120,120,110,110,110,110,120,110,100,100,100,110,105,105,105,100,95,95,85,70,75,85,85,80,75,80,80,85,125,75,70,70,75,75,70,60,60,55,50,70,70,75,75,70,65,60,60,60,60,55,45,35,55,55,45,55,40,60,65,70,45,40,20,30,5,5,0,0,0,0,0,0,0,0,0,0,0,0,0,0,0,0,0,0,0,0,0,0
0,0,0,0,0,0,0,0,0,0,0,0,0,0,0,0,0,0,0,0,0,0,0,0,0,0,0,0,0,0,0,0,0,0,0,0,0,0,0,0,0,0,0,0,0,0,0,0,0,0,0,0,0,0,0,0,0,0,0,0,0,0,0,0,0,0,5,5,10,10,10,10,10,10,10,15,20,30,35,45,55,60,65,75,80,85,85,110,105,115,115,120,130,140,160,165,160,170,160,190,185,170,190,175,175,215,215,195,195,195,190,155,130,130,130,130,120,120,110,110,110,100,100,110,100,150,160,90,60,90,110,110,110,120,150,170,180,140,100,110,140,160,140,130,140,140,120,110,100,90,100,80,60,60,60,60,50,45,41,39,37,29,32,31,26,11,1,0,0,0,0,0,0,0,0,0,0,0,0,5,20,100,120,120,120,120,120,120,120,110,100,100,100,100,100,100,105,105,95,95,90,70,75,80,85,80,80,80,95,100,120,80,70,65,70,75,75,65,60,60,60,75,75,85,85,75,70,65,60,60,60,50,35,35,40,50,55,50,50,55,55,55,25,10,10,5,5,20,15,5,5,5,5,5,5,0,0,0,0,0,0,0,0,0,0,0,0,0,0,0
0,0,0,0,0,0,0,0,0,0,0,0,0,0,0,0,0,0,0,0,0,0,0,0,0,0,0,0,0,0,0,0,0,0,0,0,0,0,0,0,0,0,0,0,0,0,0,0,0,0,0,0,0,0,0,0,0,0,0,0,0,1,1,0,0,0,2,3,10,10,10,10,10,10,15,20,20,25,35,40,50,60,65,70,75,85,100,90,80,105,100,85,120,135,150,155,170,160,150,160,195,190,185,185,205,200,195,195,195,180,190,155,145,130,120,130,130,120,120,110,110,110,110,130,140,140,120,60,50,70,80,100,110,120,140,160,190,160,100,120,160,140,140,130,140,120,130,120,120,110,110,100,70,60,60,60,60,43,45,40,39,36,35,33,29,19,1,1,0,0,0,0,0,0,0,0,0,0,0,0,10,110,120,120,120,120,120,120,120,110,100,100,100,100,95,100,100,95,100,90,95,75,70,85,85,80,80,90,95,100,120,80,70,65,70,75,80,75,60,65,65,80,70,85,85,80,70,70,65,65,65,60,40,15,50,55,60,60,50,55,50,50,30,20,15,15,5,0,0,0,0,5,5,5,5,0,0,0,0,0,0,0,0,0,0,0,0,0,0,0
0,0,0,0,0,0,0,0,0,0,0,0,0,0,0,0,0,0,0,0,0,0,0,0,0,0,0,0,0,0,0,0,0,0,0,0,0,0,0,0,0,0,0,0,0,0,0,0,0,0,0,0,0,0,0,0,0,0,0,1,2,3,4,1,0,0,0,1,4,5,6,11,15,15,15,20,20,25,30,35,45,60,65,70,75,75,85,90,70,80,95,95,100,120,140,145,155,165,155,150,200,205,200,200,205,190,180,195,190,160,180,165,140,130,130,140,130,120,110,110,110,120,130,130,130,130,110,60,50,60,70,70,80,120,130,140,190,180,140,130,140,110,120,120,110,110,130,130,120,120,120,130,90,70,60,70,70,60,50,43,40,37,33,33,31,29,7,1,0,0,0,0,0,0,0,0,0,0,0,5,20,90,130,120,60,100,120,120,120,110,110,100,90,50,35,80,95,95,95,85,90,80,80,85,85,80,80,95,100,90,95,100,70,65,60,75,75,75,65,65,65,75,75,75,80,70,65,70,65,70,65,55,25,25,50,55,60,60,55,55,50,45,30,20,15,25,5,5,5,5,5,5,0,0,0,0,0,0,0,0,0,0,0,0,0,0,0,0,0,0
0,0,0,0,0,0,0,0,0,0,0,0,0,0,0,0,0,0,0,0,0,0,0,0,0,0,0,0,0,0,0,0,0,0,0,0,0,0,0,0,0,0,0,0,0,0,0,0,0,0,0,0,0,0,0,0,0,0,1,3,6,6,7,4,1,0,0,1,1,2,3,2,13,15,20,25,25,25,30,35,40,55,65,65,75,75,80,85,75,70,80,90,90,95,125,135,145,150,155,150,185,205,185,185,175,180,180,190,160,165,175,180,140,130,130,130,130,120,110,120,120,135,130,135,120,110,70,60,60,60,60,40,40,110,130,120,180,200,160,120,110,110,120,110,100,120,130,140,120,160,100,150,130,70,100,80,70,60,50,48,44,39,33,28,32,29,8,1,1,0,0,0,0,0,0,0,0,0,0,5,70,120,110,60,30,70,110,120,120,110,100,100,65,40,35,75,95,95,90,85,90,75,75,85,85,85,80,100,95,90,95,125,70,65,65,70,75,70,70,70,60,60,70,65,85,75,70,60,60,55,40,35,5,35,35,30,60,55,60,35,50,45,45,35,20,25,10,5,5,10,5,5,0,0,0,0,0,0,0,0,0,0,0,0,0,0,0,0,0,0
0,0,0,0,0,0,0,0,0,0,0,0,0,0,0,0,0,0,0,0,0,0,0,0,0,0,0,0,0,0,0,0,0,0,0,0,0,0,0,0,0,0,0,0,0,0,0,0,0,0,0,0,0,0,0,0,0,0,1,4,7,8,9,8,6,3,1,0,1,7,3,2,1,22,25,30,30,30,30,35,40,50,55,60,60,80,80,85,80,70,80,90,90,85,100,135,140,140,145,150,185,200,200,180,180,185,180,170,145,165,180,165,130,130,120,140,150,120,130,125,130,140,140,140,135,110,90,70,70,60,60,50,60,130,140,130,180,210,170,120,100,110,110,90,90,110,110,150,130,140,130,100,100,120,130,100,80,60,60,53,47,42,34,33,30,29,11,8,4,0,0,0,0,0,0,0,0,0,0,5,100,120,70,30,5,30,90,100,90,90,90,90,80,55,60,80,95,95,90,90,80,75,85,85,85,90,90,100,90,85,90,125,65,70,65,70,70,70,70,70,70,70,65,65,85,80,70,70,65,50,30,30,15,40,50,50,55,60,50,45,50,50,45,40,35,25,15,10,10,10,5,0,0,0,0,0,0,0,0,0,0,0,0,0,0,0,0,0,0,0
0,0,0,0,0,0,0,0,0,0,0,0,0,0,0,0,0,0,0,0,0,0,0,0,0,0,0,0,0,0,0,0,0,0,0,0,0,0,0,0,0,0,0,0,0,0,0,0,0,0,0,0,0,0,0,0,0,0,2,5,6,9,9,12,10,9,9,8,2,9,12,11,19,24,30,30,35,35,30,30,35,40,40,45,50,65,80,60,55,80,75,85,85,90,105,120,115,140,145,145,170,190,200,175,180,175,170,160,150,160,180,165,150,130,130,140,130,130,125,125,120,150,140,150,145,110,100,80,70,70,60,70,70,140,130,140,200,210,170,140,100,90,80,90,90,110,110,140,140,140,150,150,160,150,130,100,80,60,60,60,49,47,36,35,30,24,14,16,8,1,0,0,0,0,0,0,0,0,0,5,110,120,50,10,15,40,70,80,70,80,90,90,70,60,65,90,100,95,90,95,85,75,75,85,90,95,115,100,90,70,65,85,105,65,65,65,65,75,70,70,70,70,70,70,90,40,40,50,60,60,50,45,20,55,60,60,50,60,55,50,55,45,40,40,30,20,15,20,20,5,5,0,0,0,0,0,0,0,0,0,0,0,0,0,0,0,0,0,0,0
0,0,0,0,0,0,0,0,0,0,0,0,0,0,0,0,0,0,0,0,0,0,0,0,0,0,0,0,0,0,0,0,0,0,0,0,0,0,0,0,0,0,0,0,0,0,0,0,0,0,0,0,0,0,0,0,0,0,2,4,8,9,10,13,12,13,12,12,7,4,16,20,20,24,30,35,40,40,40,40,45,45,35,35,45,60,65,80,50,80,80,85,90,95,100,90,100,115,150,150,160,185,190,175,175,165,150,160,150,165,170,145,150,150,145,140,130,110,105,120,120,150,125,145,135,110,95,100,70,70,70,80,80,70,70,90,210,200,170,140,40,60,80,90,100,100,110,120,140,170,170,150,130,130,120,110,70,70,60,60,60,49,41,38,29,24,25,16,10,7,0,0,0,0,0,0,0,0,0,5,50,90,30,15,40,50,40,70,80,90,90,80,70,70,80,95,100,95,95,90,85,80,75,80,90,95,110,95,85,70,65,70,90,100,65,65,65,70,70,70,70,70,75,80,85,70,60,65,65,60,60,55,60,65,60,55,60,60,65,55,55,55,40,40,25,15,15,10,10,10,15,10,5,0,0,0,0,0,0,0,0,0,0,0,0,0,0,0,0,0
0,0,0,0,0,0,0,0,0,0,0,0,0,0,0,0,0,0,0,0,0,0,0,0,0,0,0,0,0,0,0,0,0,0,0,0,0,0,0,0,0,0,0,0,0,0,0,0,0,0,0,0,0,0,0,0,0,0,2,4,3,9,10,12,13,14,15,17,16,14,16,24,24,28,32,35,40,45,45,50,50,50,50,35,40,50,60,55,70,75,60,60,75,55,85,100,100,105,140,145,155,175,180,170,160,155,150,160,160,160,165,160,155,150,145,140,135,130,110,120,120,135,135,135,130,100,100,105,90,90,100,80,60,60,50,130,180,180,190,130,60,70,80,70,110,100,120,130,170,160,140,130,120,120,100,120,90,70,70,60,60,50,45,43,27,27,23,20,8,5,1,1,1,0,1,0,0,0,0,0,5,60,5,5,30,50,60,80,80,80,60,70,70,70,90,100,100,95,95,95,90,85,80,75,90,100,110,95,80,70,65,65,75,90,80,70,65,70,55,70,70,80,75,65,85,80,75,70,65,65,65,65,60,60,55,55,55,50,65,70,55,55,45,35,30,20,20,15,10,15,10,5,5,5,5,5,0,0,0,0,0,0,0,0,0,0,0,0,0,0
0,0,0,0,0,0,0,0,0,0,0,0,0,0,0,0,0,0,0,0,0,0,0,0,0,0,0,0,0,0,0,0,0,0,0,0,0,0,0,0,0,0,0,0,0,0,0,0,0,0,0,0,0,0,0,0,0,0,2,3,2,6,10,13,14,14,18,19,20,15,18,26,29,31,32,35,40,45,50,50,50,55,55,55,45,50,50,45,60,50,60,50,60,45,40,85,100,100,115,130,150,160,170,160,160,145,155,155,155,150,165,165,145,150,145,140,130,120,115,110,115,125,125,115,125,115,110,105,100,110,100,80,80,130,130,160,110,130,170,120,80,60,70,80,60,100,150,170,170,140,130,120,110,110,100,110,70,70,70,70,60,50,46,46,32,29,27,11,9,3,1,1,1,3,1,0,0,0,0,0,5,10,0,10,60,60,50,70,80,40,30,60,70,60,80,70,90,90,100,95,90,85,80,85,90,105,100,95,75,65,65,65,60,70,95,50,45,70,55,55,70,85,90,80,90,80,80,80,70,70,65,65,65,60,60,60,55,55,65,55,50,60,45,40,35,20,25,15,10,5,10,5,10,5,5,0,0,0,0,0,0,0,0,0,0,0,0,0,0,0
0,0,0,0,0,0,0,0,0,0,0,0,0,0,0,0,0,0,0,0,0,0,0,0,0,0,0,0,0,0,0,0,0,0,0,0,0,0,0,0,0,0,0,0,0,0,0,0,0,0,0,0,0,0,0,0,0,0,2,4,6,7,5,12,14,15,17,19,22,24,26,28,31,33,33,35,40,45,50,50,55,55,55,60,60,50,50,40,45,50,55,55,45,45,45,50,90,105,105,110,140,155,160,155,150,150,155,155,160,155,165,155,145,150,150,130,130,125,120,110,110,115,105,105,110,120,115,115,110,120,100,80,130,130,120,140,70,190,190,90,50,40,60,40,40,110,170,180,170,150,130,110,110,110,100,110,90,90,70,70,60,50,50,46,39,31,27,20,9,6,1,1,4,4,1,0,0,0,0,0,0,0,5,50,50,50,40,50,50,30,5,50,50,5,15,15,60,90,100,90,90,85,80,85,95,110,100,90,60,65,65,65,60,60,80,90,65,65,60,55,60,75,90,90,85,90,85,80,70,70,65,65,65,70,65,65,40,55,60,60,55,50,50,35,40,25,20,10,10,5,10,20,10,10,5,0,0,0,0,0,0,0,0,0,0,0,0,0,0,0
0,0,0,0,0,0,0,0,0,0,0,0,0,0,0,0,0,0,0,0,0,0,0,0,0,0,0,0,0,0,0,0,0,0,0,0,0,0,0,0,0,0,0,0,0,0,0,0,0,0,0,0,0,0,0,0,0,0,3,4,6,8,9,10,13,15,15,17,22,25,29,31,32,34,35,35,40,50,50,55,55,55,60,60,60,60,60,40,40,55,55,50,50,40,35,45,60,100,85,100,125,145,150,150,145,145,150,155,150,155,160,150,145,145,150,130,130,125,125,120,115,110,110,115,120,115,115,120,120,120,130,130,130,120,120,100,90,190,160,50,60,50,40,40,60,130,180,180,160,140,110,100,110,100,110,110,100,70,70,70,60,60,50,50,43,37,29,25,14,5,7,5,9,2,2,0,0,0,0,0,0,0,5,10,40,15,5,10,15,30,20,20,5,0,5,5,5,50,80,90,90,80,80,85,115,110,100,70,60,65,60,65,60,60,85,95,90,75,65,50,45,60,70,90,90,95,95,90,75,75,65,65,65,70,50,50,55,60,60,60,55,50,50,40,40,30,5,30,20,15,10,10,10,15,5,5,5,5,0,0,0,0,0,0,0,0,0,0,0,0
0,0,0,0,0,0,0,0,0,0,0,0,0,0,0,0,0,0,0,0,0,0,0,0,0,0,0,0,0,0,0,0,0,0,0,0,0,0,0,0,0,0,0,0,0,0,0,0,0,0,0,0,0,0,0,0,0,0,2,4,5,6,7,9,11,13,14,19,24,25,31,33,33,37,40,40,40,50,55,55,55,60,60,60,60,60,60,60,60,55,60,55,45,40,40,50,75,90,80,90,105,135,145,145,140,150,150,150,150,155,160,155,155,150,135,135,130,130,125,125,115,120,115,120,110,110,115,120,140,150,140,130,120,130,110,100,150,170,70,60,100,80,40,50,130,170,180,170,170,130,120,110,120,110,110,110,100,90,70,60,60,60,50,50,41,36,30,25,26,8,9,4,1,4,1,0,0,0,0,0,0,0,0,0,0,0,0,0,20,40,40,10,0,0,0,0,5,30,90,90,90,80,80,90,120,115,90,70,65,65,65,60,55,60,70,75,95,100,80,55,45,45,65,70,80,90,90,95,90,75,70,65,65,70,65,60,60,60,60,60,60,60,50,50,40,5,5,30,35,30,20,10,10,20,5,10,5,25,10,5,0,0,0,0,0,0,0,0,0,0
0,0,0,0,0,0,0,0,0,0,0,0,0,0,0,0,0,0,0,0,0,0,0,0,0,0,0,0,0,0,0,0,0,0,0,0,0,0,0,0,0,0,0,0,0,0,0,0,0,0,0,0,0,0,0,0,0,0,0,3,4,5,6,7,9,12,15,17,24,28,34,36,37,39,40,45,45,50,45,55,55,60,60,65,65,65,65,65,65,60,60,60,50,40,40,55,60,75,80,85,105,115,115,105,95,125,150,155,150,155,155,150,155,150,135,135,130,130,125,125,115,110,105,105,120,115,115,130,150,150,130,130,120,120,110,140,170,160,120,130,140,140,110,120,160,180,170,170,150,130,130,120,110,110,90,110,120,100,90,70,70,60,50,50,50,36,33,28,23,16,7,7,8,5,1,0,0,0,0,0,0,0,0,0,0,0,0,5,40,40,20,5,0,0,0,5,40,90,90,90,90,80,90,100,120,120,110,75,70,65,65,60,60,55,60,50,80,105,110,80,55,45,55,70,70,85,90,85,90,75,70,70,70,70,65,65,60,65,65,65,50,50,45,45,55,30,15,30,30,25,20,10,5,15,10,5,5,10,5,5,5,0,0,0,0,0,0,0,0,0
0,0,0,0,0,0,0,0,0,0,0,0,0,0,0,0,0,0,0,0,0,0,0,0,0,0,0,0,0,0,0,0,0,0,0,0,0,0,0,0,0,0,0,0,0,0,0,0,0,0,0,0,0,0,0,0,0,0,0,2,2,2,3,4,7,10,13,18,26,30,35,38,40,42,45,50,50,50,50,50,60,60,60,65,65,65,65,65,65,65,60,60,55,40,45,50,55,55,80,80,95,105,105,95,95,105,125,150,150,160,150,145,150,155,140,125,135,135,125,120,120,120,120,110,125,120,120,140,160,140,130,120,120,120,120,140,170,150,140,140,150,140,140,160,170,190,160,170,140,130,120,110,110,110,90,110,110,110,90,80,70,60,60,50,50,40,31,27,26,21,10,3,10,2,1,0,0,0,0,0,0,0,0,0,0,0,5,20,5,5,20,15,5,5,5,70,90,90,90,90,90,90,90,90,110,110,110,80,65,60,60,60,50,50,55,45,50,75,105,110,75,50,60,70,75,80,85,85,85,75,75,70,70,70,70,65,65,70,60,20,5,15,65,55,50,50,25,30,40,40,15,5,15,5,10,5,5,15,10,10,5,0,0,0,0,0,0,0,0,0
0,0,0,0,0,0,0,0,0,0,0,0,0,0,0,0,0,0,0,0,0,0,0,0,0,0,0,0,0,0,0,0,0,0,0,0,0,0,0,0,0,0,0,0,0,0,0,0,0,0,0,0,0,0,0,0,0,0,0,0,0,2,2,3,2,1,11,19,25,30,35,39,41,44,45,50,55,55,55,55,50,60,60,65,65,65,65,65,56,65,65,60,60,45,45,45,50,55,60,70,80,90,90,90,85,95,105,150,155,155,150,150,145,150,130,135,135,125,125,120,130,130,130,150,130,130,130,140,160,140,130,120,120,120,120,150,170,150,130,130,140,130,150,170,190,180,160,170,140,130,110,110,110,110,100,120,110,100,90,80,70,70,60,60,50,40,33,26,25,25,10,3,6,2,1,0,0,0,0,0,0,0,0,0,0,0,5,5,0,0,20,5,0,5,40,80,30,80,90,90,80,90,80,80,100,120,110,80,70,60,60,60,55,55,60,55,55,60,75,105,110,70,70,65,70,70,85,85,85,80,80,75,70,65,35,70,70,65,60,5,5,5,70,70,55,45,35,35,40,30,5,15,15,10,10,20,20,25,10,5,5,0,0,0,0,0,0,0,0,0
0,0,0,0,0,0,0,0,0,0,0,0,0,0,0,0,0,0,0,0,0,0,0,0,0,0,0,0,0,0,0,0,0,0,0,0,0,0,0,0,0,0,0,0,0,0,0,0,0,0,0,0,0,0,0,0,0,0,0,0,0,0,0,2,2,2,7,14,25,31,37,40,44,45,46,50,55,55,55,60,55,50,60,65,65,65,56,65,65,65,70,65,60,50,50,50,45,50,55,65,70,65,85,85,80,75,60,40,115,150,140,145,145,145,140,145,140,135,130,130,130,140,140,150,130,140,130,140,160,140,130,120,120,130,140,170,160,120,130,130,130,140,170,170,180,170,170,160,150,120,110,110,110,110,120,120,100,90,90,80,70,70,70,60,50,40,30,32,29,25,22,11,10,6,1,0,0,0,0,0,0,0,0,0,0,0,5,0,0,5,10,5,0,10,30,90,5,30,90,90,90,90,80,80,110,120,100,70,65,60,55,50,55,45,55,65,55,50,60,75,110,100,70,70,70,70,70,85,85,80,75,75,70,60,65,70,20,20,45,5,5,5,40,55,60,45,40,30,35,20,5,20,20,10,10,5,10,5,5,5,5,5,5,0,0,0,0,0,0,0
0,0,0,0,0,0,0,0,0,0,0,0,0,0,0,0,0,0,0,0,0,0,0,0,0,0,0,0,0,0,0,0,0,0,0,0,0,0,0,0,0,0,0,0,0,0,0,0,0,0,0,0,0,0,0,0,0,0,0,0,0,0,0,0,1,1,4,11,20,25,30,41,44,26,27,50,55,55,55,60,60,60,60,65,65,65,70,70,70,70,70,70,65,55,50,50,45,40,50,60,55,50,50,80,75,45,40,30,40,80,55,145,140,140,145,150,140,140,130,130,130,140,160,140,130,130,130,140,150,140,130,120,130,140,160,170,120,110,120,130,140,160,160,160,170,170,170,140,160,130,110,110,110,120,130,120,100,90,90,80,80,70,70,60,50,40,33,33,30,25,25,18,8,5,5,1,0,0,0,0,0,0,0,0,0,0,0,0,0,0,0,0,0,5,5,90,70,40,90,90,90,90,90,80,110,110,100,70,70,60,60,50,50,50,50,55,65,45,55,70,95,110,90,70,70,70,65,85,85,85,75,70,70,65,70,65,10,5,45,20,10,40,45,5,55,55,40,40,40,5,20,20,20,15,10,15,5,10,5,5,5,5,5,0,0,0,0,0,0,0
0,0,0,0,0,0,0,0,0,0,0,0,0,0,0,0,0,0,0,0,0,0,0,0,0,0,0,0,0,0,0,0,0,0,0,0,0,0,0,0,0,0,0,0,0,0,0,0,0,0,0,0,0,0,0,0,0,0,0,0,0,0,0,0,0,1,4,8,15,25,30,39,42,26,28,50,55,55,60,65,65,65,60,60,65,65,70,70,70,70,70,70,65,60,55,50,45,40,40,45,50,45,55,55,50,35,30,30,45,50,50,55,125,135,150,155,150,140,135,130,140,150,160,130,130,130,130,150,150,140,130,120,140,150,170,140,120,110,110,130,160,160,150,160,160,160,150,140,160,140,110,120,110,130,120,110,100,90,90,80,90,80,70,60,50,40,32,32,32,29,24,23,19,10,8,2,1,0,0,0,0,0,0,0,0,0,0,0,0,0,0,0,0,0,10,80,5,40,80,90,60,80,90,90,100,110,90,70,65,60,60,55,50,55,45,60,65,50,45,65,80,100,105,85,80,75,65,75,80,80,75,65,70,65,65,55,10,5,35,20,5,40,40,5,5,55,50,50,35,10,35,40,25,15,15,35,5,5,5,5,5,5,5,0,0,5,5,5,0,0
0,0,0,0,0,0,0,0,0,0,0,0,0,0,0,0,0,0,0,0,0,0,0,0,0,0,0,0,0,0,0,0,0,0,0,0,0,0,0,0,0,0,0,0,0,0,0,0,0,0,0,0,0,0,0,0,0,0,0,0,0,0,0,0,0,1,6,10,15,20,30,35,38,45,50,55,55,60,60,65,70,70,70,60,65,65,70,70,70,70,70,70,70,65,65,55,50,35,35,40,40,40,45,40,40,35,35,40,35,40,40,45,65,125,150,155,155,145,140,130,130,160,160,140,140,130,140,150,150,140,130,130,140,150,160,140,110,110,110,130,150,160,160,150,160,150,150,140,140,140,120,120,130,130,120,110,100,90,90,90,90,80,70,70,60,50,42,37,33,30,26,22,20,12,7,1,3,0,0,0,0,0,0,0,0,0,0,0,0,0,0,0,0,5,40,80,30,40,80,30,5,60,100,90,110,110,90,70,65,60,60,55,55,55,55,55,75,65,55,55,70,90,105,85,80,75,65,70,75,80,75,70,65,65,60,50,5,0,5,5,0,5,45,5,0,45,50,50,40,15,35,25,5,5,5,35,5,5,5,5,5,0,5,0,0,0,5,10,0,0
0,0,0,0,0,0,0,0,0,0,0,0,0,0,0,0,0,0,0,0,0,0,0,0,0,0,0,0,0,0,0,0,0,0,0,0,0,0,0,0,0,0,0,0,0,0,0,0,0,0,0,0,0,0,0,0,0,0,0,0,0,0,0,0,0,1,3,5,10,25,30,35,40,45,50,55,55,60,60,65,70,75,70,70,65,65,65,70,70,70,70,70,70,70,65,60,45,35,30,35,35,35,35,35,35,35,35,35,30,30,45,35,35,45,105,150,150,155,140,130,140,160,150,140,140,140,150,150,150,140,130,140,140,150,150,140,110,110,120,150,160,150,150,150,150,150,150,140,130,130,130,140,130,120,120,110,100,90,100,100,90,80,80,70,60,50,44,41,35,32,27,24,20,18,4,1,1,0,0,0,0,0,0,0,0,0,0,0,0,0,0,0,0,5,70,60,5,30,70,10,5,5,90,90,100,110,100,70,70,60,60,60,55,60,60,65,75,75,70,60,65,85,85,95,80,70,70,70,80,80,75,70,65,65,60,40,5,0,0,0,0,0,45,20,5,45,45,50,10,5,0,0,0,0,0,5,20,5,5,5,5,0,0,0,0,0,10,10,5,0
0,0,0,0,0,0,0,0,0,0,0,0,0,0,0,0,0,0,0,0,0,0,0,0,0,0,0,0,0,0,0,0,0,0,0,0,0,0,0,0,0,0,0,0,0,0,0,0,0,0,0,0,0,0,0,0,0,0,0,0,0,0,0,0,0,0,1,1,7,15,25,30,35,45,50,55,55,55,60,65,70,75,75,75,70,65,65,65,70,70,70,70,70,70,70,65,50,40,30,30,30,30,35,35,35,35,40,40,30,35,40,30,35,40,40,145,150,155,140,130,150,160,140,140,140,140,150,150,150,140,140,140,140,150,150,130,110,120,140,150,150,150,140,140,140,140,150,150,130,130,140,145,110,120,120,110,100,100,100,100,90,80,80,80,60,50,48,43,37,33,29,25,22,9,6,4,1,0,0,0,0,0,0,0,0,0,0,0,0,0,0,0,5,70,70,10,5,40,30,5,5,60,90,90,100,110,100,70,70,60,60,60,50,50,60,60,65,80,80,75,75,85,85,95,90,70,75,80,80,90,80,70,65,70,65,55,15,5,0,0,0,0,40,40,45,45,45,40,10,0,0,0,0,0,0,5,20,10,5,5,5,5,5,0,0,0,5,10,5,0
0,0,0,0,0,0,0,0,0,0,0,0,0,0,0,0,0,0,0,0,0,0,0,0,0,0,0,0,0,0,0,0,0,0,0,0,0,0,0,0,0,0,0,0,0,0,0,0,0,0,0,0,0,0,0,0,0,0,0,0,0,0,0,0,0,0,1,3,5,11,20,30,35,45,45,50,55,55,55,65,70,75,80,80,75,70,65,60,65,70,70,70,70,70,70,65,65,55,30,30,25,25,25,35,35,35,35,40,35,35,35,20,30,30,30,45,150,150,145,140,160,160,150,140,150,160,160,150,150,140,140,140,150,150,140,130,120,140,150,150,150,130,120,120,140,140,150,140,140,140,150,150,110,120,120,110,100,100,100,100,90,80,80,80,60,50,50,46,39,34,30,23,25,12,10,2,5,3,1,0,0,0,0,0,0,0,0,0,0,0,0,5,60,60,40,5,15,70,70,60,20,80,90,90,100,110,90,70,70,60,60,60,50,45,45,55,55,65,80,80,80,85,85,90,95,90,70,85,85,90,80,75,70,65,70,60,15,5,0,0,10,10,40,40,45,40,15,15,5,0,0,0,0,0,8,10,15,15,5,5,5,5,5,0,0,0,5,5,5,0
0,0,0,0,0,0,0,0,0,0,0,0,0,0,0,0,0,0,0,0,0,0,0,0,0,0,0,0,0,0,0,0,0,0,0,0,0,0,0,0,0,0,0,0,0,0,0,0,0,0,0,0,0,0,0,0,0,0,0,0,0,0,0,0,0,0,0,2,4,8,15,25,30,40,45,50,55,55,55,65,70,75,80,80,75,70,70,65,65,65,70,70,70,70,70,70,65,65,55,40,35,30,30,30,30,35,35,35,35,35,30,30,30,25,20,35,135,145,140,150,160,150,140,150,160,160,150,150,160,140,140,140,150,150,140,140,140,150,160,140,140,160,120,110,130,140,150,140,140,150,150,140,120,130,130,120,110,110,100,100,100,90,90,80,70,60,54,48,42,38,30,28,24,19,7,1,4,4,1,0,0,0,0,0,0,0,0,0,0,0,5,50,60,60,60,5,60,70,70,70,70,80,90,90,110,100,80,70,70,60,60,50,45,40,40,40,40,55,60,80,80,80,85,85,90,105,100,90,90,90,80,75,75,70,70,65,45,10,5,0,10,35,40,30,25,5,10,15,0,0,0,0,0,5,10,5,15,15,10,5,10,5,5,0,0,3,3,0,0,0
0,0,0,0,0,0,0,0,0,0,0,0,0,0,0,0,0,0,0,0,0,0,0,0,0,0,0,0,0,0,0,0,0,0,0,0,0,0,0,0,0,0,0,0,0,0,0,0,0,0,0,0,0,0,0,0,0,0,0,0,0,0,0,0,0,0,0,2,8,11,15,20,25,35,45,50,55,55,55,65,70,75,80,80,75,75,70,70,65,65,65,70,70,70,75,70,70,65,65,60,55,45,40,40,30,40,35,35,35,35,35,30,35,30,40,35,70,125,140,150,150,150,150,160,150,160,160,150,150,140,140,140,150,150,150,140,140,120,130,140,160,140,130,100,100,140,150,130,145,170,150,130,130,130,120,120,110,110,100,100,100,100,90,70,70,60,58,52,43,39,34,29,25,21,13,5,2,4,2,0,0,0,0,0,0,0,0,0,0,5,30,50,5,5,0,0,5,5,40,15,50,80,90,90,100,90,70,70,60,60,50,40,45,40,40,40,35,45,50,55,80,80,85,80,80,95,100,95,95,90,85,80,75,70,60,65,60,45,10,5,5,25,35,5,0,0,5,5,0,0,0,0,0,7,5,0,0,5,15,5,10,5,5,5,1,3,3,0,0,0
0,0,0,0,0,0,0,0,0,0,0,0,0,0,0,0,0,0,0,0,0,0,0,0,0,0,0,0,0,0,0,0,0,0,0,0,0,0,0,0,0,0,0,0,0,0,0,0,0,0,0,0,0,0,0,0,0,0,0,0,0,0,0,0,0,0,0,5,9,9,13,20,25,30,45,50,55,55,60,65,65,70,75,80,80,80,75,75,70,65,65,60,70,70,75,75,70,70,70,65,65,60,55,55,45,45,45,40,40,40,40,35,30,35,45,50,85,105,130,140,150,140,140,160,150,160,150,150,150,140,140,150,160,160,150,140,130,130,120,130,150,140,130,100,100,130,150,140,145,160,150,140,130,120,110,120,110,110,100,100,105,100,90,80,70,70,62,55,48,40,34,30,27,24,19,5,2,2,1,0,0,0,0,0,0,0,0,5,5,20,10,5,0,0,0,0,0,0,0,0,10,80,90,90,100,80,70,60,50,50,40,30,40,40,40,40,40,40,50,65,75,80,80,80,75,80,95,100,100,95,90,85,75,75,70,60,60,55,40,10,5,5,5,5,0,0,0,0,0,0,0,0,0,5,5,0,0,5,10,10,15,10,5,5,2,3,3,0,0,0
0,0,0,0,0,0,0,0,0,0,0,0,0,0,0,0,0,0,0,0,0,0,0,0,0,0,0,0,0,0,0,0,0,0,0,0,0,0,0,0,0,0,0,0,0,0,0,0,0,0,0,0,0,0,0,0,0,0,0,0,0,0,0,0,0,0,0,2,8,11,11,20,25,30,40,50,50,55,60,65,65,70,75,80,85,85,80,80,80,75,70,65,65,70,70,75,75,75,75,70,70,70,65,65,60,55,50,50,45,45,45,40,35,40,50,60,70,70,85,135,150,140,135,160,140,160,150,150,150,150,150,160,160,160,150,140,130,130,120,120,140,130,120,100,100,100,140,140,150,160,150,145,140,120,110,120,110,110,105,100,100,90,90,90,80,70,63,52,46,42,35,29,29,24,20,10,3,1,1,0,0,0,0,0,0,0,0,5,15,5,0,0,0,0,0,0,0,0,0,0,5,15,90,90,100,70,60,50,50,50,40,30,25,30,35,35,35,35,35,40,60,70,75,80,80,75,75,85,100,95,95,85,80,75,75,70,55,50,55,40,30,10,5,5,0,0,0,0,0,0,0,0,0,3,0,0,5,9,10,10,5,5,5,5,5,5,5,0,0,0
0,0,0,0,0,0,0,0,0,0,0,0,0,0,0,0,0,0,0,0,0,0,0,0,0,0,0,0,0,0,0,0,0,0,0,0,0,0,0,0,0,0,0,0,0,0,0,0,0,0,0,0,0,0,0,0,0,0,0,0,0,0,0,0,0,0,1,5,7,11,12,15,20,30,35,45,50,55,60,65,65,65,70,80,85,90,90,90,85,80,80,80,70,65,70,75,75,75,75,75,75,75,75,75,70,65,60,55,45,45,45,40,35,40,45,50,50,55,50,85,130,135,130,135,130,150,150,150,150,150,160,160,160,150,150,140,130,130,120,120,140,120,125,110,110,140,145,145,150,155,150,145,130,120,120,110,105,105,105,100,100,100,100,90,80,70,61,53,50,45,37,34,29,25,22,7,2,4,3,0,0,0,0,0,0,0,0,5,10,5,0,0,0,0,0,0,0,0,0,0,0,10,90,90,90,70,50,30,40,40,40,40,40,30,35,35,35,35,30,35,45,60,70,75,75,80,80,85,95,95,90,85,80,75,75,75,70,65,60,60,45,20,10,5,0,0,0,0,0,0,0,0,0,0,0,0,5,12,11,5,0,5,5,0,0,5,5,5,0,0
0,0,0,0,0,0,0,0,0,0,0,0,0,0,0,0,0,0,0,0,0,0,0,0,0,0,0,0,0,0,0,0,0,0,0,0,0,0,0,0,0,0,0,0,0,0,0,0,0,0,0,0,0,0,0,0,0,0,0,0,0,0,0,0,0,0,0,7,10,9,10,15,20,25,35,45,50,50,60,60,65,65,70,70,80,85,85,75,90,85,85,85,80,70,70,70,75,75,75,75,75,75,75,75,75,70,70,60,55,45,45,45,40,35,40,40,45,50,45,45,60,120,130,135,135,120,165,160,150,160,165,170,145,145,145,140,135,130,120,130,125,120,125,120,120,130,150,150,155,155,155,150,140,130,120,110,105,105,105,110,110,105,100,90,75,75,62,57,51,46,36,33,30,25,22,22,4,1,1,0,0,0,0,0,0,0,0,3,1,0,0,0,0,0,0,0,0,0,0,0,0,5,90,90,80,70,40,20,20,30,30,40,35,35,35,35,30,35,35,30,40,40,65,70,75,80,85,90,95,95,90,85,80,75,70,70,70,70,65,60,55,40,15,5,5,0,0,0,0,0,0,0,0,0,0,0,5,0,5,1,0,5,5,0,0,0,0,0,0,0
0,0,0,0,0,0,0,0,0,0,0,0,0,0,0,0,0,0,0,0,0,0,0,0,0,0,0,0,0,0,0,0,0,0,0,0,0,0,0,0,0,0,0,0,0,0,0,0,0,0,0,0,0,0,0,0,0,0,0,0,0,0,0,0,0,0,0,5,8,8,11,15,20,25,30,40,45,50,55,60,65,65,65,65,70,70,70,70,80,90,85,85,80,75,70,70,65,70,80,80,80,75,75,80,80,75,75,70,65,55,50,45,35,30,35,35,40,40,40,40,40,110,125,135,115,120,160,155,160,170,165,155,150,160,150,140,145,135,130,130,130,125,130,125,125,125,150,160,165,160,155,155,145,135,125,105,105,105,105,115,120,105,95,85,75,75,59,56,48,45,38,35,28,28,23,19,4,1,1,1,0,0,0,0,0,0,0,0,0,0,0,0,0,0,0,0,0,0,0,0,5,60,90,90,80,60,20,5,5,15,20,10,20,20,30,35,30,30,30,30,40,50,45,65,75,85,90,90,95,90,90,80,80,75,70,70,70,70,70,65,60,50,35,15,10,5,5,0,0,0,0,0,0,0,0,0,0,0,0,1,0,0,0,0,0,0,0,0,0,0
0,0,0,0,0,0,0,0,0,0,0,0,0,0,0,0,0,0,0,0,0,0,0,0,0,0,0,0,0,0,0,0,0,0,0,0,0,0,0,0,0,0,0,0,0,0,0,0,0,0,0,0,0,0,0,0,0,0,0,0,0,0,0,0,0,0,0,1,6,7,10,15,15,25,30,35,45,50,55,60,60,65,65,65,70,70,70,70,75,80,90,85,85,80,75,70,70,60,65,50,80,75,75,80,80,80,75,75,70,65,60,50,45,30,30,40,35,35,35,35,40,90,125,125,120,145,160,160,165,180,165,165,155,160,145,140,145,130,130,135,125,125,125,125,125,115,160,160,165,170,160,160,150,135,125,110,110,100,110,125,120,100,90,75,75,70,66,57,48,44,41,35,31,28,25,19,16,1,2,1,0,0,0,0,0,0,0,0,0,0,0,0,0,0,0,0,0,0,0,0,10,90,90,80,60,40,15,5,5,5,5,5,5,5,15,20,35,35,35,35,50,55,35,50,80,85,85,95,95,90,85,75,75,75,70,70,70,65,65,65,60,55,55,45,30,15,5,5,0,0,0,0,0,0,0,0,0,0,0,0,0,0,0,0,0,0,0,0,0,0
0,0,0,0,0,0,0,0,0,0,0,0,0,0,0,0,0,0,0,0,0,0,0,0,0,0,0,0,0,0,0,0,0,0,0,0,0,0,0,0,0,0,0,0,0,0,0,0,0,0,0,0,0,0,0,0,0,0,0,0,0,0,0,0,0,0,0,0,3,6,10,10,15,25,30,40,45,50,50,55,60,65,65,65,70,70,70,70,70,70,80,95,85,80,80,75,70,65,60,50,50,75,75,75,75,75,80,75,75,70,65,60,55,50,45,45,40,40,40,40,40,45,120,120,140,145,140,145,160,175,160,165,160,150,145,145,140,135,130,140,135,125,120,125,125,115,115,160,165,170,165,160,150,135,130,120,115,110,120,130,130,95,75,70,75,70,64,61,51,44,41,33,32,29,25,20,15,3,2,1,0,0,0,0,0,0,0,0,0,0,0,0,0,0,0,0,0,0,0,5,10,90,80,70,40,20,5,0,0,0,0,0,0,0,0,5,30,35,35,35,40,55,45,75,85,90,85,90,95,95,85,80,75,75,75,70,70,65,60,55,60,55,50,50,45,30,15,5,5,5,0,0,0,0,0,0,0,0,0,0,0,0,0,0,0,0,0,0,0,0
0,0,0,0,0,0,0,0,0,0,0,0,0,0,0,0,0,0,0,0,0,0,0,0,0,0,0,0,0,0,0,0,0,0,0,0,0,0,0,0,0,0,0,0,0,0,0,0,0,0,0,0,0,0,0,0,0,0,0,0,0,0,0,0,0,0,0,0,4,8,8,10,15,20,35,40,45,45,50,50,55,60,60,65,70,70,70,70,70,70,70,95,90,85,85,80,75,70,65,60,55,60,60,75,75,75,80,80,75,75,70,65,60,55,55,50,45,40,40,40,40,45,100,130,135,130,135,135,170,160,155,165,170,150,155,150,150,140,135,145,135,130,125,125,125,115,110,140,165,170,170,165,145,135,130,125,120,120,130,135,105,95,80,75,75,65,65,60,47,45,41,34,30,30,26,20,14,13,1,1,0,0,0,0,0,0,0,0,0,0,0,0,0,0,0,0,0,0,0,5,60,80,80,40,20,5,0,0,0,0,0,0,0,0,0,10,25,40,40,40,45,60,75,85,90,90,85,80,85,95,90,80,75,75,75,70,70,65,60,60,55,55,50,45,40,30,25,15,10,5,5,0,0,0,0,0,0,0,0,0,0,0,0,0,0,0,0,0,0,0
0,0,0,0,0,0,0,0,0,0,0,0,0,0,0,0,0,0,0,0,0,0,0,0,0,0,0,0,0,0,0,0,0,0,0,0,0,0,0,0,0,0,0,0,0,0,0,0,0,0,0,0,0,0,0,0,0,0,0,0,0,0,0,0,0,0,0,1,5,7,10,10,15,25,30,40,45,45,45,50,45,50,60,65,65,70,70,70,70,70,75,80,90,90,85,80,75,75,70,70,70,65,65,65,70,75,75,75,75,75,75,75,70,65,60,55,50,45,40,40,45,50,85,125,125,125,130,135,170,150,155,170,170,155,155,160,160,150,150,145,135,130,125,125,125,110,110,105,160,170,170,155,150,140,135,135,125,135,140,140,125,95,85,75,65,60,60,60,51,45,42,37,31,29,27,21,16,3,1,0,0,0,0,0,0,0,0,0,0,0,0,0,0,0,0,0,0,0,0,20,70,80,60,20,5,0,0,0,0,0,0,0,0,0,0,5,30,40,45,45,80,85,90,90,90,90,85,80,80,90,90,90,80,75,70,70,70,65,60,60,55,50,45,45,40,35,30,20,15,10,5,0,0,0,0,0,0,0,0,0,0,0,0,0,0,0,0,0,0,0
0,0,0,0,0,0,0,0,0,0,0,0,0,0,0,0,0,0,0,0,0,0,0,0,0,0,0,0,0,0,0,0,0,0,0,0,0,0,0,0,0,0,0,0,0,0,0,0,0,0,0,0,0,0,0,0,0,0,0,0,0,0,0,0,0,0,0,2,7,10,10,10,20,25,30,35,40,40,45,45,45,50,55,55,65,65,70,70,70,70,70,70,80,90,85,85,80,80,80,75,75,75,70,70,65,60,60,70,75,75,75,75,75,70,65,60,55,50,45,40,40,55,85,100,115,120,125,140,160,150,160,170,160,160,165,170,170,165,155,145,135,130,130,130,125,115,110,105,115,170,170,155,150,145,140,130,125,135,150,135,130,100,80,75,65,60,60,60,51,43,41,37,29,29,27,24,19,9,2,1,1,0,0,0,0,0,0,0,0,0,0,0,0,0,0,0,0,0,0,10,70,60,20,5,0,0,0,0,0,0,0,0,0,0,0,5,25,45,70,80,90,90,90,85,80,90,85,85,50,85,85,85,85,80,75,70,70,65,65,60,60,50,50,45,40,35,30,25,20,15,10,5,0,0,0,0,0,0,0,0,0,0,0,0,0,0,0,0,0,0
0,0,0,0,0,0,0,0,0,0,0,0,0,0,0,0,0,0,0,0,0,0,0,0,0,0,0,0,0,0,0,0,0,0,0,0,0,0,0,0,0,0,0,0,0,0,0,0,0,0,0,0,0,0,0,0,0,0,0,0,0,0,0,0,0,0,0,3,8,10,10,10,20,25,30,40,40,40,45,45,45,50,45,45,55,65,70,70,70,70,65,65,75,80,90,90,85,85,80,75,75,80,75,75,70,65,60,60,70,75,75,75,75,75,70,65,60,55,45,40,45,60,75,75,100,120,130,145,155,155,165,165,160,160,165,175,180,170,160,145,145,135,130,135,125,115,115,110,110,160,170,155,150,145,130,130,130,140,160,130,120,105,90,70,65,60,58,57,50,49,40,37,31,28,28,23,20,11,7,2,0,0,0,0,0,0,0,0,0,0,0,0,0,0,0,0,0,0,5,30,60,40,5,0,0,0,0,0,0,0,0,0,0,0,0,5,45,60,70,80,85,80,55,45,45,60,60,40,35,45,80,75,85,80,75,70,70,70,65,60,60,55,50,45,40,35,30,25,20,15,10,5,0,0,0,0,0,0,0,0,0,0,0,0,0,0,0,0,0,0
0,0,0,0,0,0,0,0,0,0,0,0,0,0,0,0,0,0,0,0,0,0,0,0,0,0,0,0,0,0,0,0,0,0,0,0,0,0,0,0,0,0,0,0,0,0,0,0,0,0,0,0,0,0,0,0,0,0,0,0,0,0,0,0,0,0,1,3,7,8,9,15,20,25,35,40,40,40,45,45,45,50,45,45,50,60,65,70,70,70,65,65,65,55,55,75,70,75,85,85,80,80,80,80,75,70,65,60,70,75,75,75,75,75,75,70,65,60,50,45,45,55,65,70,70,120,135,140,155,155,160,155,150,155,165,175,175,170,165,150,145,140,140,140,130,125,125,115,125,130,165,150,150,135,115,130,130,150,160,125,110,95,85,70,65,60,58,56,51,47,41,35,34,30,26,24,18,12,9,5,0,0,0,0,0,0,0,0,0,0,0,0,0,0,0,0,0,0,5,60,50,20,5,0,0,0,0,0,0,0,0,0,0,0,0,5,30,50,50,45,40,50,40,40,35,45,40,25,25,25,55,70,70,75,75,75,70,70,65,60,60,55,50,45,40,35,30,25,20,15,10,5,0,0,0,0,0,0,0,0,0,0,0,0,0,0,0,0,0,0
0,0,0,0,0,0,0,0,0,0,0,0,0,0,0,0,0,0,0,0,0,0,0,0,0,0,0,0,0,0,0,0,0,0,0,0,0,0,0,0,0,0,0,0,0,0,0,0,0,0,0,0,0,0,0,0,0,0,0,0,0,0,0,0,0,0,2,5,7,9,10,15,20,30,35,40,40,40,45,50,50,50,50,50,55,60,55,60,65,70,70,65,60,55,45,50,50,45,70,90,85,85,85,85,80,75,70,65,60,75,75,75,75,75,75,75,70,65,60,45,45,45,65,70,85,110,125,150,145,145,160,140,155,160,165,180,180,170,165,155,145,145,145,145,130,130,125,125,125,130,155,145,120,115,115,130,130,140,150,115,100,90,80,75,60,60,57,56,50,48,45,34,33,32,26,25,19,14,10,2,0,0,0,0,0,0,0,0,0,0,0,0,0,0,0,0,0,0,20,50,20,5,0,0,0,0,0,0,0,0,0,0,0,0,0,0,5,30,35,35,35,35,35,35,35,35,35,20,20,20,30,50,65,70,70,70,70,70,65,60,60,55,50,45,40,35,30,25,20,15,10,5,0,0,0,0,0,0,0,0,0,0,0,0,0,0,0,0,0,0
0,0,0,0,0,0,0,0,0,0,0,0,0,0,0,0,0,0,0,0,0,0,0,0,0,0,0,0,0,0,0,0,0,0,0,0,0,0,0,0,0,0,0,0,0,0,0,0,0,0,0,0,0,0,0,0,0,0,0,0,0,0,0,0,0,0,3,5,8,9,10,15,25,30,35,40,45,40,45,50,55,55,55,55,60,60,55,50,50,55,70,70,70,65,55,45,40,35,40,85,85,85,85,85,85,80,75,70,60,65,75,75,80,80,80,75,75,70,60,50,45,45,65,75,85,80,100,145,145,145,130,150,160,150,160,175,175,170,165,160,160,160,150,145,140,145,130,130,130,140,145,125,120,115,105,130,135,145,150,110,100,90,80,75,65,60,60,51,47,46,44,37,27,31,29,25,18,14,7,4,0,0,0,0,0,0,0,0,0,0,0,0,0,0,0,0,0,0,35,5,5,0,0,0,0,0,0,0,0,0,0,0,0,0,0,0,5,15,25,30,30,30,30,30,30,35,25,20,15,15,25,35,40,60,65,60,70,70,65,60,60,55,50,45,40,35,30,25,20,10,5,0,0,0,0,0,0,0,0,0,0,0,0,0,0,0,0,0,0,0
0,0,0,0,0,0,0,0,0,0,0,0,0,0,0,0,0,0,0,0,0,0,0,0,0,0,0,0,0,0,0,0,0,0,0,0,0,0,0,0,0,0,0,0,0,0,0,0,0,0,0,0,0,0,0,0,0,0,0,0,0,0,0,0,0,0,5,6,9,10,10,15,25,30,35,40,45,40,45,50,55,55,60,60,60,55,55,55,50,55,50,55,70,65,65,55,45,35,30,80,85,85,90,85,85,80,75,75,70,60,75,75,80,80,80,80,75,70,65,55,50,50,60,70,75,70,75,140,140,140,135,150,155,155,160,170,180,175,170,165,165,160,155,150,145,140,135,130,130,135,140,125,115,110,110,135,140,140,130,110,95,85,80,75,70,65,56,51,44,44,43,38,30,30,26,20,15,13,8,2,0,0,0,0,0,0,0,0,0,0,0,0,0,0,0,0,0,0,20,5,0,0,0,0,0,0,0,0,0,0,0,0,0,0,0,0,0,2,10,10,10,5,20,25,30,30,25,20,20,15,10,20,20,35,60,60,60,65,65,60,60,55,50,45,40,35,30,25,20,10,5,0,0,0,0,0,0,0,0,0,0,0,0,0,0,0,0,0,0,0
0,0,0,0,0,0,0,0,0,0,0,0,0,0,0,0,0,0,0,0,0,0,0,0,0,0,0,0,0,0,0,0,0,0,0,0,0,0,0,0,0,0,0,0,0,0,0,0,0,0,0,0,0,0,0,0,0,0,0,0,0,0,0,0,0,1,4,7,10,10,10,15,25,30,40,45,45,40,45,50,55,55,60,60,60,55,55,55,50,55,50,45,40,45,70,65,50,40,40,75,80,85,85,70,40,60,75,75,75,65,65,75,80,80,80,80,80,75,70,65,55,50,55,65,65,65,85,130,140,140,150,150,145,155,160,160,170,175,175,175,170,165,165,155,150,150,140,130,130,135,135,125,115,115,125,140,145,140,130,80,95,85,80,75,70,65,60,52,45,43,42,39,32,30,24,20,14,12,1,1,0,0,0,0,0,0,0,0,0,0,0,0,0,0,0,0,0,2,9,0,0,0,0,0,0,0,0,0,0,0,0,0,0,0,0,0,0,0,0,0,0,0,5,15,20,25,25,20,15,15,10,15,10,20,20,35,60,60,60,60,60,55,50,45,40,35,30,20,15,5,5,0,0,0,0,0,0,0,0,0,0,0,0,0,0,0,0,0,0,0
0,0,0,0,0,0,0,0,0,0,0,0,0,0,0,0,0,0,0,0,0,0,0,0,0,0,0,0,0,0,0,0,0,0,0,0,0,0,0,0,0,0,0,0,0,0,0,0,0,0,0,0,0,0,0,0,0,0,0,0,0,0,0,0,0,0,4,7,9,10,10,15,25,35,40,45,45,40,45,50,55,55,60,60,65,65,60,60,55,55,55,45,40,40,45,65,60,50,50,55,75,70,70,45,40,60,75,75,75,70,60,75,80,80,80,80,80,80,75,70,60,50,55,60,65,70,100,130,135,130,150,160,150,155,160,160,170,175,180,175,170,170,170,165,160,160,140,135,130,130,130,125,125,120,145,145,145,135,120,75,80,60,80,75,70,65,55,45,46,42,39,36,34,29,23,16,13,6,2,0,0,0,0,0,0,0,0,0,0,0,0,0,0,0,0,0,0,1,2,0,0,0,0,0,0,0,0,0,0,0,0,0,0,0,0,0,0,0,0,0,0,0,0,5,10,15,20,20,15,10,10,10,5,15,25,30,30,55,60,60,55,55,50,45,40,35,25,20,15,10,5,0,0,0,0,0,0,0,0,0,0,0,0,0,0,0,0,0,0,0
0,0,0,0,0,0,0,0,0,0,0,0,0,0,0,0,0,0,0,0,0,0,0,0,0,0,0,0,0,0,0,0,0,0,0,0,0,0,0,0,0,0,0,0,0,0,0,0,0,0,0,0,0,0,0,0,0,0,0,0,0,0,0,0,0,0,4,6,10,11,15,25,30,35,40,45,45,40,40,45,50,55,55,60,60,65,65,65,60,60,55,50,45,40,35,45,65,65,65,65,65,55,40,50,50,75,45,75,75,75,65,75,80,80,80,80,80,80,80,75,65,55,55,55,60,80,105,105,100,75,70,145,150,150,155,155,165,180,180,175,170,180,180,175,165,155,150,140,135,130,125,125,130,135,150,150,140,135,115,60,60,50,70,75,70,65,60,45,40,39,35,34,29,24,20,13,10,3,0,0,0,0,0,0,0,0,0,0,0,0,0,0,0,0,0,0,0,5,5,0,0,0,0,0,0,0,0,0,0,0,0,0,0,0,0,0,0,0,0,0,0,0,0,0,0,5,15,15,15,10,10,5,5,5,10,15,20,30,50,55,55,50,50,45,40,30,25,20,15,10,5,0,0,0,0,0,0,0,0,0,0,0,0,0,0,0,0,0,0,0
0,0,0,0,0,0,0,0,0,0,0,0,0,0,0,0,0,0,0,0,0,0,0,0,0,0,0,0,0,0,0,0,0,0,0,0,0,0,0,0,0,0,0,0,0,0,0,0,0,0,0,0,0,0,0,0,0,0,0,0,0,0,0,0,0,0,3,5,9,10,15,20,30,35,40,45,45,45,40,40,45,55,55,60,60,65,70,70,70,70,65,60,50,45,45,45,50,45,40,65,60,55,50,60,65,55,30,75,75,75,70,65,75,80,80,80,80,80,80,80,70,60,55,55,70,85,95,95,75,55,55,70,125,145,155,155,170,180,180,180,185,190,190,185,175,160,160,150,145,135,125,130,135,125,120,145,140,130,115,65,65,50,75,75,70,65,55,39,36,35,32,32,28,21,17,14,4,1,0,0,0,0,0,0,0,0,0,0,0,0,0,0,0,0,0,0,0,0,0,0,0,0,0,0,0,0,0,0,0,0,0,0,0,0,0,0,0,0,0,0,0,0,0,0,0,0,5,10,10,10,10,5,5,5,5,10,20,15,25,50,50,50,45,45,35,30,25,15,15,10,5,0,0,0,0,0,0,0,0,0,0,0,0,0,0,0,0,0,0,0
0,0,0,0,0,0,0,0,0,0,0,0,0,0,0,0,0,0,0,0,0,0,0,0,0,0,0,0,0,0,0,0,0,0,0,0,0,0,0,0,0,0,0,0,0,0,0,0,0,0,0,0,0,0,0,0,0,0,0,0,0,0,0,0,0,0,3,6,7,9,15,25,30,35,40,45,45,45,40,40,45,55,60,60,65,65,70,70,70,75,70,70,65,60,55,50,50,45,45,50,60,55,50,55,55,40,30,65,75,75,70,65,75,80,80,80,80,80,80,80,75,65,55,55,65,75,85,70,55,50,55,50,85,110,150,155,175,170,170,180,190,190,190,190,175,170,165,160,145,130,130,130,130,120,115,130,135,125,105,70,65,65,75,70,65,60,46,41,32,30,32,26,14,16,8,5,2,0,0,0,0,0,0,0,0,0,0,0,0,0,0,0,0,0,0,0,0,0,0,0,0,0,0,0,0,0,0,0,0,0,0,0,0,0,0,0,0,0,0,0,0,0,0,0,0,0,0,5,5,5,5,10,5,5,5,5,10,15,15,20,40,45,45,40,35,30,20,15,10,5,0,0,0,0,0,0,0,0,0,0,0,0,0,0,0,0,0,0,0,0
0,0,0,0,0,0,0,0,0,0,0,0,0,0,0,0,0,0,0,0,0,0,0,0,0,0,0,0,0,0,0,0,0,0,0,0,0,0,0,0,0,0,0,0,0,0,0,0,0,0,0,0,0,0,0,0,0,0,0,0,0,0,0,0,0,0,2,5,7,9,15,25,30,35,40,45,45,45,40,40,40,50,60,65,65,65,70,70,70,75,75,70,70,65,60,55,55,50,50,50,45,60,50,55,55,40,50,50,70,75,75,70,70,80,80,80,80,80,80,80,75,70,60,55,60,65,65,55,50,45,50,45,90,120,150,165,170,160,160,185,190,190,190,190,175,170,170,165,155,135,135,135,135,125,110,115,130,120,105,70,70,65,70,60,60,55,40,39,34,31,23,20,12,14,8,1,0,0,0,0,0,0,0,0,0,0,0,0,0,0,0,0,0,0,0,0,0,0,0,0,0,0,0,0,0,0,0,0,0,0,0,0,0,0,0,0,0,0,0,0,0,0,0,0,0,0,0,0,0,0,0,5,5,0,0,0,5,0,0,15,15,40,40,40,35,25,20,15,5,5,0,0,0,0,0,0,0,0,0,0,0,0,0,0,0,0,0,0,0,0
0,0,0,0,0,0,0,0,0,0,0,0,0,0,0,0,0,0,0,0,0,0,0,0,0,0,0,0,0,0,0,0,0,0,0,0,0,0,0,0,0,0,0,0,0,0,0,0,0,0,0,0,0,0,0,0,0,0,0,0,0,0,0,0,0,1,3,5,8,10,15,25,30,35,40,45,45,45,40,40,40,45,60,65,65,65,65,65,70,75,65,70,70,70,65,60,60,55,55,50,45,45,40,55,55,45,45,45,40,70,70,70,70,75,80,80,80,80,80,80,75,70,65,55,55,55,55,50,50,45,45,50,110,125,145,160,160,155,160,180,190,195,195,190,175,165,165,170,160,140,140,145,135,120,115,110,115,110,85,70,65,60,60,60,55,45,42,28,32,30,20,16,11,14,2,1,0,0,0,0,0,0,0,0,0,0,0,0,0,0,0,0,0,0,0,0,0,0,0,0,0,0,0,0,0,0,0,0,0,0,0,0,0,0,0,0,0,0,0,0,0,0,0,0,0,0,0,0,0,0,0,0,0,0,0,0,0,0,0,10,15,25,35,35,30,25,15,10,5,0,0,0,0,0,0,0,0,0,0,0,0,0,0,0,0,0,0,0,0,0
0,0,0,0,0,0,0,0,0,0,0,0,0,0,0,0,0,0,0,0,0,0,0,0,0,0,0,0,0,0,0,0,0,0,0,0,0,0,0,0,0,0,0,0,0,0,0,0,0,0,0,0,0,0,0,0,0,0,0,0,0,0,0,0,0,1,4,6,7,10,15,25,30,35,40,45,45,45,45,40,40,45,60,65,65,65,65,65,70,70,55,55,70,70,70,65,60,60,55,50,50,45,40,40,55,50,45,45,50,70,70,70,70,75,75,80,80,80,80,80,80,75,65,60,55,55,55,50,50,45,45,70,110,120,140,155,155,155,160,190,195,195,195,185,165,155,170,175,165,150,150,150,150,125,120,110,110,115,105,75,60,55,55,60,48,45,38,27,30,23,19,19,5,8,3,0,0,0,0,0,0,0,0,0,0,0,0,0,0,0,0,0,0,0,0,0,0,0,0,0,0,0,0,0,0,0,0,0,0,0,0,0,0,0,0,0,0,0,0,0,0,0,0,0,0,0,0,0,0,0,0,0,0,0,0,0,0,0,0,5,5,10,20,30,25,15,10,5,0,0,0,0,0,0,0,0,0,0,0,0,0,0,0,0,0,0,0,0,0,0
0,0,0,0,0,0,0,0,0,0,0,0,0,0,0,0,0,0,0,0,0,0,0,0,0,0,0,0,0,0,0,0,0,0,0,0,0,0,0,0,0,0,0,0,0,0,0,0,0,0,0,0,0,0,0,0,0,0,0,0,0,0,0,0,0,1,3,5,9,11,20,25,30,35,40,45,45,45,45,45,40,45,65,65,65,65,65,65,65,70,60,55,65,70,70,70,65,60,60,55,50,45,40,40,40,40,40,45,60,70,70,70,70,70,75,80,80,80,80,80,80,75,70,60,55,50,50,50,50,45,45,55,95,110,140,145,120,150,160,175,165,190,195,170,160,155,170,175,170,155,155,155,140,130,120,110,110,115,110,95,60,55,55,48,44,39,34,21,24,23,19,8,1,2,0,0,0,0,0,0,0,0,0,0,0,0,0,0,0,0,0,0,0,0,0,0,0,0,0,0,0,0,0,0,0,0,0,0,0,0,0,0,0,0,0,0,0,0,0,0,0,0,0,0,0,0,0,0,0,0,0,0,0,0,0,0,0,0,0,0,0,5,5,10,15,10,5,0,0,0,0,0,0,0,0,0,0,0,0,0,0,0,0,0,0,0,0,0,0,0
0,0,0,0,0,0,0,0,0,0,0,0,0,0,0,0,0,0,0,0,0,0,0,0,0,0,0,0,0,0,0,0,0,0,0,0,0,0,0,0,0,0,0,0,0,0,0,0,0,0,0,0,0,0,0,0,0,0,0,0,0,0,0,0,0,1,3,7,9,11,20,25,35,35,40,45,45,45,45,45,40,50,60,65,65,65,56,65,65,65,65,60,60,70,70,70,70,65,60,55,55,50,45,45,40,35,30,40,40,60,70,70,70,70,75,75,80,80,80,80,80,75,70,65,55,50,50,50,50,45,45,50,75,95,110,120,120,130,150,135,125,185,185,165,155,155,165,170,160,160,160,150,145,130,125,110,110,120,120,90,55,50,50,50,44,35,27,25,26,21,21,10,9,1,0,0,0,0,0,0,0,0,0,0,0,0,0,0,0,0,0,0,0,0,0,0,0,0,0,0,0,0,0,0,0,0,0,0,0,0,0,0,0,0,0,0,0,0,0,0,0,0,0,0,0,0,0,0,0,0,0,0,0,0,0,0,0,0,0,0,0,0,5,5,5,5,0,0,0,0,0,0,0,0,0,0,0,0,0,0,0,0,0,0,0,0,0,0,0,0
0,0,0,0,0,0,0,0,0,0,0,0,0,0,0,0,0,0,0,0,0,0,0,0,0,0,0,0,0,0,0,0,0,0,0,0,0,0,0,0,0,0,0,0,0,0,0,0,0,0,0,0,0,0,0,0,0,0,0,0,0,0,0,0,0,2,3,7,10,12,20,25,35,35,40,40,45,45,45,45,45,50,60,65,65,65,65,65,65,65,65,60,55,55,70,70,70,65,65,60,55,55,50,45,40,35,35,30,35,40,65,70,70,70,75,75,80,80,80,80,80,75,70,65,60,55,50,50,50,45,45,55,60,75,90,110,115,120,145,130,130,150,165,155,155,160,165,165,160,155,155,150,135,130,125,115,115,120,120,90,55,50,50,47,38,27,28,27,21,16,16,12,4,1,0,0,0,0,0,0,0,0,0,0,0,0,0,0,0,0,0,0,0,0,0,0,0,0,0,0,0,0,0,0,0,0,0,0,0,0,0,0,0,0,0,0,0,0,0,0,0,0,0,0,0,0,0,0,0,0,0,0,0,0,0,0,0,0,0,0,0,0,0,0,0,0,0,0,0,0,0,0,0,0,0,0,0,0,0,0,0,0,0,0,0,0,0,0,0,0
0,0,0,0,0,0,0,0,0,0,0,0,0,0,0,0,0,0,0,0,0,0,0,0,0,0,0,0,0,0,0,0,0,0,0,0,0,0,0,0,0,0,0,0,0,0,0,0,0,0,0,0,0,0,0,0,0,0,0,0,0,0,0,0,0,3,4,7,10,15,20,25,30,35,35,40,45,45,45,45,45,50,60,65,65,65,56,65,65,65,65,60,60,55,65,70,70,70,65,60,60,55,50,50,45,40,40,35,40,50,60,65,70,70,75,75,80,80,80,80,80,80,75,70,60,55,50,50,50,50,45,45,55,60,65,75,110,140,130,120,110,110,150,150,160,165,165,160,155,155,155,145,140,135,125,120,115,115,110,80,55,50,47,41,32,26,28,18,20,8,13,13,3,0,0,0,0,0,0,0,0,0,0,0,0,0,0,0,0,0,0,0,0,0,0,0,0,0,0,0,0,0,0,0,0,0,0,0,0,0,0,0,0,0,0,0,0,0,0,0,0,0,0,0,0,0,0,0,0,0,0,0,0,0,0,0,0,0,0,0,0,0,0,0,0,0,0,0,0,0,0,0,0,0,0,0,0,0,0,0,0,0,0,0,0,0,0,0,0,0
0,0,0,0,0,0,0,0,0,0,0,0,0,0,0,0,0,0,0,0,0,0,0,0,0,0,0,0,0,0,0,0,0,0,0,0,0,0,0,0,0,0,0,0,0,0,0,0,0,0,0,0,0,0,0,0,0,0,0,0,0,0,0,0,0,3,6,7,10,15,20,25,30,35,35,40,45,50,50,45,50,55,60,65,65,65,70,65,65,65,65,65,60,55,55,70,65,70,65,65,60,60,55,50,50,45,40,35,40,45,55,65,65,70,75,75,80,85,85,80,80,80,75,70,65,55,50,50,50,50,45,45,45,50,60,60,90,120,135,110,100,125,140,145,160,165,165,155,150,150,150,145,140,135,125,120,115,110,105,80,55,50,44,31,26,25,19,14,13,5,8,7,1,0,0,0,0,0,0,0,0,0,0,0,0,0,0,0,0,0,0,0,0,0,0,0,0,0,0,0,0,0,0,0,0,0,0,0,0,0,0,0,0,0,0,0,0,0,0,0,0,0,0,0,0,0,0,0,0,0,0,0,0,0,0,0,0,0,0,0,0,0,0,0,0,0,0,0,0,0,0,0,0,0,0,0,0,0,0,0,0,0,0,0,0,0,0,0,0,0
0,0,0,0,0,0,0,0,0,0,0,0,0,0,0,0,0,0,0,0,0,0,0,0,0,0,0,0,0,0,0,0,0,0,0,0,0,0,0,0,0,0,0,0,0,0,0,0,0,0,0,0,0,0,0,0,0,0,0,0,0,0,0,0,0,1,6,7,9,13,20,25,25,30,35,45,50,50,50,45,50,55,60,65,65,70,70,70,65,65,65,65,60,60,60,65,70,70,70,65,65,60,55,55,50,50,45,40,40,45,50,60,65,70,75,75,85,90,90,85,80,80,80,75,65,60,55,50,50,50,50,45,45,45,50,55,75,90,125,110,95,125,130,125,155,165,160,150,145,145,150,140,135,135,125,120,115,110,85,65,55,50,41,29,26,14,10,8,2,2,2,1,0,0,0,0,0,0,0,0,0,0,0,0,0,0,0,0,0,0,0,0,0,0,0,0,0,0,0,0,0,0,0,0,0,0,0,0,0,0,0,0,0,0,0,0,0,0,0,0,0,0,0,0,0,0,0,0,0,0,0,0,0,0,0,0,0,0,0,0,0,0,0,0,0,0,0,0,0,0,0,0,0,0,0,0,0,0,0,0,0,0,0,0,0,0,0,0,0,0
0,0,0,0,0,0,0,0,0,0,0,0,0,0,0,0,0,0,0,0,0,0,0,0,0,0,0,0,0,0,0,0,0,0,0,0,0,0,0,0,0,0,0,0,0,0,0,0,0,0,0,0,0,0,0,0,0,0,0,0,0,0,0,0,0,2,6,9,10,11,15,20,25,30,40,45,50,50,50,45,50,50,60,65,65,70,70,70,70,65,65,65,65,60,60,60,65,70,70,65,65,60,60,55,55,50,45,40,40,40,45,55,65,70,75,75,85,90,90,90,85,85,80,80,70,65,55,50,50,50,50,50,45,45,45,50,60,85,100,115,110,120,125,125,125,155,150,145,145,140,140,140,135,130,125,120,115,100,85,60,50,41,33,27,21,10,9,2,1,0,0,0,0,0,0,0,0,0,0,0,0,0,0,0,0,0,0,0,0,0,0,0,0,0,0,0,0,0,0,0,0,0,0,0,0,0,0,0,0,0,0,0,0,0,0,0,0,0,0,0,0,0,0,0,0,0,0,0,0,0,0,0,0,0,0,0,0,0,0,0,0,0,0,0,0,0,0,0,0,0,0,0,0,0,0,0,0,0,0,0,0,0,0,0,0,0,0,0,0,0
0,0,0,0,0,0,0,0,0,0,0,0,0,0,0,0,0,0,0,0,0,0,0,0,0,0,0,0,0,0,0,0,0,0,0,0,0,0,0,0,0,0,0,0,0,0,0,0,0,0,0,0,0,0,0,0,0,0,0,0,0,0,0,0,0,1,4,8,10,11,20,20,25,35,45,45,50,50,50,45,45,50,55,65,65,70,70,70,70,70,65,65,65,65,60,60,65,65,65,65,65,65,60,60,55,50,50,45,40,35,45,60,70,75,75,80,85,90,90,90,90,90,85,85,80,70,65,60,60,55,50,50,50,45,45,45,55,80,110,110,110,100,115,125,130,140,145,145,140,140,135,135,135,130,125,120,110,100,85,55,43,29,27,23,9,8,1,1,0,0,0,0,0,0,0,0,0,0,0,0,0,0,0,0,0,0,0,0,0,0,0,0,0,0,0,0,0,0,0,0,0,0,0,0,0,0,0,0,0,0,0,0,0,0,0,0,0,0,0,0,0,0,0,0,0,0,0,0,0,0,0,0,0,0,0,0,0,0,0,0,0,0,0,0,0,0,0,0,0,0,0,0,0,0,0,0,0,0,0,0,0,0,0,0,0,0,0,0,0,0
0,0,0,0,0,0,0,0,0,0,0,0,0,0,0,0,0,0,0,0,0,0,0,0,0,0,0,0,0,0,0,0,0,0,0,0,0,0,0,0,0,0,0,0,0,0,0,0,0,0,0,0,0,0,0,0,0,0,0,0,0,0,0,0,0,3,8,7,8,14,20,20,30,40,45,50,50,55,55,50,45,50,60,65,65,70,70,70,70,70,65,65,65,60,60,60,65,65,65,65,60,65,65,60,55,55,50,45,40,40,45,60,75,80,80,80,85,90,90,90,90,90,90,85,85,85,75,70,65,60,55,50,50,45,45,45,50,80,100,110,110,90,100,125,125,135,140,135,135,135,135,130,130,125,125,115,100,90,80,47,37,24,21,14,10,2,1,0,0,0,0,0,0,0,0,0,0,0,0,0,0,0,0,0,0,0,0,0,0,0,0,0,0,0,0,0,0,0,0,0,0,0,0,0,0,0,0,0,0,0,0,0,0,0,0,0,0,0,0,0,0,0,0,0,0,0,0,0,0,0,0,0,0,0,0,0,0,0,0,0,0,0,0,0,0,0,0,0,0,0,0,0,0,0,0,0,0,0,0,0,0,0,0,0,0,0,0,0,0,0
0,0,0,0,0,0,0,0,0,0,0,0,0,0,0,0,0,0,0,0,0,0,0,0,0,0,0,0,0,0,0,0,0,0,0,0,0,0,0,0,0,0,0,0,0,0,0,0,0,0,0,0,0,0,0,0,0,0,0,0,0,0,0,0,1,6,5,7,10,12,15,25,35,40,45,50,50,55,55,45,45,50,55,65,65,70,70,70,70,70,65,65,65,60,60,60,60,65,65,65,65,65,65,60,60,55,50,50,45,40,40,45,65,85,85,80,85,95,90,90,90,90,90,90,85,85,85,80,75,70,65,60,50,45,45,45,45,65,85,90,95,85,110,120,125,125,125,130,130,130,130,125,125,125,120,110,100,80,70,37,29,26,12,9,4,2,0,0,0,0,0,0,0,0,0,0,0,0,0,0,0,0,0,0,0,0,0,0,0,0,0,0,0,0,0,0,0,0,0,0,0,0,0,0,0,0,0,0,0,0,0,0,0,0,0,0,0,0,0,0,0,0,0,0,0,0,0,0,0,0,0,0,0,0,0,0,0,0,0,0,0,0,0,0,0,0,0,0,0,0,0,0,0,0,0,0,0,0,0,0,0,0,0,0,0,0,0,0,0,0
0,0,0,0,0,0,0,0,0,0,0,0,0,0,0,0,0,0,0,0,0,0,0,0,0,0,0,0,0,0,0,0,0,0,0,0,0,0,0,0,0,0,0,0,0,0,0,0,0,0,0,0,0,0,0,0,0,0,0,0,0,0,0,0,1,5,5,9,14,14,20,30,40,45,45,50,50,55,55,50,45,50,60,65,65,70,70,70,70,70,65,65,65,60,60,60,60,60,65,65,65,65,65,65,60,55,55,50,45,45,40,40,50,85,85,80,85,95,90,90,90,90,90,90,85,85,85,85,80,80,75,65,60,50,45,45,45,50,60,50,90,85,100,115,120,120,115,125,125,125,115,120,120,120,115,100,90,75,45,38,27,12,8,5,2,1,0,0,0,0,0,0,0,0,0,0,0,0,0,0,0,0,0,0,0,0,0,0,0,0,0,0,0,0,0,0,0,0,0,0,0,0,0,0,0,0,0,0,0,0,0,0,0,0,0,0,0,0,0,0,0,0,0,0,0,0,0,0,0,0,0,0,0,0,0,0,0,0,0,0,0,0,0,0,0,0,0,0,0,0,0,0,0,0,0,0,0,0,0,0,0,0,0,0,0,0,0,0,0,0
0,0,0,0,0,0,0,0,0,0,0,0,0,0,0,0,0,0,0,0,0,0,0,0,0,0,0,0,0,0,0,0,0,0,0,0,0,0,0,0,0,0,0,0,0,0,0,0,0,0,0,0,0,0,0,0,0,0,0,0,0,0,0,0,1,5,8,10,13,15,25,35,40,45,50,50,55,55,55,55,45,55,50,65,65,70,70,70,70,70,65,65,65,65,65,60,60,60,60,60,65,65,65,65,60,60,55,50,50,45,45,40,50,70,85,85,85,90,90,90,90,90,90,90,90,85,85,85,85,85,80,75,65,55,45,40,40,45,45,45,50,90,95,110,110,115,110,120,120,115,110,110,110,115,110,100,80,70,50,32,21,14,7,2,1,0,0,0,0,0,0,0,0,0,0,0,0,0,0,0,0,0,0,0,0,0,0,0,0,0,0,0,0,0,0,0,0,0,0,0,0,0,0,0,0,0,0,0,0,0,0,0,0,0,0,0,0,0,0,0,0,0,0,0,0,0,0,0,0,0,0,0,0,0,0,0,0,0,0,0,0,0,0,0,0,0,0,0,0,0,0,0,0,0,0,0,0,0,0,0,0,0,0,0,0,0,0,0,0,0
0,0,0,0,0,0,0,0,0,0,0,0,0,0,0,0,0,0,0,0,0,0,0,0,0,0,0,0,0,0,0,0,0,0,0,0,0,0,0,0,0,0,0,0,0,0,0,0,0,0,0,0,0,0,0,0,0,0,0,0,0,0,0,1,1,7,8,11,14,20,30,40,45,45,50,50,55,55,55,55,55,55,55,65,65,65,65,65,70,70,65,65,65,65,65,60,60,60,60,60,65,65,65,65,65,60,55,55,50,50,45,40,40,70,80,85,85,90,90,90,90,90,90,90,90,85,85,85,85,85,80,75,70,60,45,40,40,40,40,45,60,85,95,100,105,105,105,110,110,110,105,105,105,105,100,90,75,62,44,32,25,7,1,1,1,0,0,0,0,0,0,0,0,0,0,0,0,0,0,0,0,0,0,0,0,0,0,0,0,0,0,0,0,0,0,0,0,0,0,0,0,0,0,0,0,0,0,0,0,0,0,0,0,0,0,0,0,0,0,0,0,0,0,0,0,0,0,0,0,0,0,0,0,0,0,0,0,0,0,0,0,0,0,0,0,0,0,0,0,0,0,0,0,0,0,0,0,0,0,0,0,0,0,0,0,0,0,0,0,0
0,0,0,0,0,0,0,0,0,0,0,0,0,0,0,0,0,0,0,0,0,0,0,0,0,0,0,0,0,0,0,0,0,0,0,0,0,0,0,0,0,0,0,0,0,0,0,0,0,0,0,0,0,0,0,0,0,0,0,0,0,0,1,4,5,6,9,14,15,25,35,40,45,45,50,50,55,55,55,55,55,60,60,65,65,65,65,65,65,65,65,65,65,65,65,60,60,60,60,60,60,60,60,65,65,65,60,55,55,50,45,45,40,55,80,90,85,90,90,90,90,90,90,90,85,85,85,85,85,85,80,75,70,60,50,40,40,40,40,45,70,85,90,95,95,95,100,105,105,105,105,100,100,100,95,85,68,65,46,30,23,1,0,0,0,0,0,0,0,0,0,0,0,0,0,0,0,0,0,0,0,0,0,0,0,0,0,0,0,0,0,0,0,0,0,0,0,0,0,0,0,0,0,0,0,0,0,0,0,0,0,0,0,0,0,0,0,0,0,0,0,0,0,0,0,0,0,0,0,0,0,0,0,0,0,0,0,0,0,0,0,0,0,0,0,0,0,0,0,0,0,0,0,0,0,0,0,0,0,0,0,0,0,0,0,0,0,0,0,0
0,0,0,0,0,0,0,0,0,0,0,0,0,0,0,0,0,0,0,0,0,0,0,0,0,0,0,0,0,0,0,0,0,0,0,0,0,0,0,0,0,0,0,0,0,0,0,0,0,0,0,0,0,0,0,0,0,0,0,0,0,1,5,6,8,10,11,15,20,25,35,40,45,45,50,50,50,55,55,55,60,60,60,65,65,65,65,65,65,65,65,65,65,65,65,65,60,60,55,55,55,55,60,60,65,65,65,60,55,50,50,45,40,45,65,90,90,90,90,90,90,90,90,90,90,85,85,85,85,80,80,75,70,65,50,45,40,35,40,50,70,75,85,80,90,90,95,95,100,100,90,95,95,90,90,80,66,62,48,32,9,1,0,0,0,0,0,0,0,0,0,0,0,0,0,0,0,0,0,0,0,0,0,0,0,0,0,0,0,0,0,0,0,0,0,0,0,0,0,0,0,0,0,0,0,0,0,0,0,0,0,0,0,0,0,0,0,0,0,0,0,0,0,0,0,0,0,0,0,0,0,0,0,0,0,0,0,0,0,0,0,0,0,0,0,0,0,0,0,0,0,0,0,0,0,0,0,0,0,0,0,0,0,0,0,0,0,0,0,0
0,0,0,0,0,0,0,0,0,0,0,0,0,0,0,0,0,0,0,0,0,0,0,0,0,0,0,0,0,0,0,0,0,0,0,0,0,0,0,0,0,0,0,0,0,0,0,0,0,0,0,0,0,0,0,0,0,0,0,0,1,5,6,9,10,13,15,20,25,30,35,40,45,45,50,50,50,55,55,60,60,60,60,60,60,65,65,65,65,65,65,65,65,65,65,60,60,60,55,55,55,55,55,60,60,65,65,60,60,55,50,45,45,40,50,70,90,90,90,90,90,90,90,90,90,90,85,85,85,80,80,75,75,60,50,45,40,35,35,50,60,65,70,60,75,85,90,90,90,90,90,90,85,85,85,74,63,56,52,38,24,3,0,0,0,0,0,0,0,0,0,0,0,0,0,0,0,0,0,0,0,0,0,0,0,0,0,0,0,0,0,0,0,0,0,0,0,0,0,0,0,0,0,0,0,0,0,0,0,0,0,0,0,0,0,0,0,0,0,0,0,0,0,0,0,0,0,0,0,0,0,0,0,0,0,0,0,0,0,0,0,0,0,0,0,0,0,0,0,0,0,0,0,0,0,0,0,0,0,0,0,0,0,0,0,0,0,0,0,0
0,0,0,0,0,0,0,0,0,0,0,0,0,0,0,0,0,0,0,0,0,0,0,0,0,0,0,0,0,0,0,0,0,0,0,0,0,0,0,0,0,0,0,0,0,0,0,0,0,0,0,0,0,0,0,0,1,3,0,0,5,7,8,9,13,15,15,20,25,30,35,40,45,45,45,50,50,55,55,60,60,60,60,60,60,60,60,65,65,65,65,65,65,65,65,60,60,60,55,55,55,55,55,55,60,60,65,65,60,55,55,50,45,45,45,50,75,90,90,90,90,90,90,90,90,90,90,85,85,80,80,75,75,65,55,45,40,35,35,40,50,55,55,50,60,75,80,85,85,85,85,80,80,80,75,71,65,55,52,24,15,9,0,0,0,0,0,0,0,0,0,0,0,0,0,0,0,0,0,0,0,0,0,0,0,0,0,0,0,0,0,0,0,0,0,0,0,0,0,0,0,0,0,0,0,0,0,0,0,0,0,0,0,0,0,0,0,0,0,0,0,0,0,0,0,0,0,0,0,0,0,0,0,0,0,0,0,0,0,0,0,0,0,0,0,0,0,0,0,0,0,0,0,0,0,0,0,0,0,0,0,0,0,0,0,0,0,0,0,0
0,0,0,0,0,0,0,0,0,0,0,0,0,0,0,0,0,0,0,0,0,0,0,0,0,0,0,0,0,0,0,0,0,0,0,0,0,0,0,0,0,0,0,0,0,0,0,0,0,0,0,0,0,0,1,1,4,4,2,1,7,9,10,15,15,15,20,20,25,30,35,40,40,40,45,45,50,50,55,55,60,60,60,60,60,60,60,60,60,60,65,65,65,65,60,60,60,60,55,55,55,55,55,55,55,60,60,65,60,55,55,50,50,45,50,55,75,90,90,90,90,95,95,90,90,90,90,90,85,85,80,80,75,65,55,50,45,35,30,30,45,50,50,50,65,70,75,75,80,80,80,75,75,75,71,69,63,54,49,27,8,4,0,0,0,0,0,0,0,0,0,0,0,0,0,0,0,0,0,0,0,0,0,0,0,0,0,0,0,0,0,0,0,0,0,0,0,0,0,0,0,0,0,0,0,0,0,0,0,0,0,0,0,0,0,0,0,0,0,0,0,0,0,0,0,0,0,0,0,0,0,0,0,0,0,0,0,0,0,0,0,0,0,0,0,0,0,0,0,0,0,0,0,0,0,0,0,0,0,0,0,0,0,0,0,0,0,0,0,0
0,0,0,0,0,0,0,0,0,0,0,0,0,0,0,0,0,0,0,0,0,0,0,0,0,0,0,0,0,0,0,0,0,0,0,0,0,0,0,0,0,0,0,0,0,0,0,0,0,0,0,0,0,1,2,4,6,5,1,4,10,10,15,15,15,20,20,20,25,30,35,35,40,40,40,45,45,50,50,55,55,60,60,60,60,60,60,60,60,60,60,60,60,60,60,60,60,60,55,55,55,55,50,50,50,55,55,60,60,55,55,55,50,45,50,55,80,90,90,90,90,95,95,95,90,90,90,90,85,85,80,80,75,70,60,55,50,40,30,30,25,40,45,45,60,65,70,60,70,75,75,70,70,63,62,61,59,55,49,23,9,1,0,0,0,0,0,0,0,0,0,0,0,0,0,0,0,0,0,0,0,0,0,0,0,0,0,0,0,0,0,0,0,0,0,0,0,0,0,0,0,0,0,0,0,0,0,0,0,0,0,0,0,0,0,0,0,0,0,0,0,0,0,0,0,0,0,0,0,0,0,0,0,0,0,0,0,0,0,0,0,0,0,0,0,0,0,0,0,0,0,0,0,0,0,0,0,0,0,0,0,0,0,0,0,0,0,0,0,0
0,0,0,0,0,0,0,0,0,0,0,0,0,0,0,0,0,0,0,0,0,0,0,0,0,0,0,0,0,0,0,0,0,0,0,0,0,0,0,0,0,0,0,0,0,0,0,0,0,0,0,0,0,1,4,6,7,2,1,11,15,15,15,15,20,20,20,25,25,30,35,35,35,40,40,40,45,45,50,50,55,55,55,55,55,55,55,55,60,60,60,60,60,60,60,60,60,55,55,55,55,55,50,50,50,50,55,55,55,55,55,55,50,50,50,55,55,85,90,90,90,90,95,95,90,90,90,90,90,85,85,80,75,70,65,55,50,45,35,30,25,30,40,40,45,55,60,55,65,70,70,65,60,60,55,55,50,45,40,21,3,1,0,0,0,0,0,0,0,0,0,0,0,0,0,0,0,0,0,0,0,0,0,0,0,0,0,0,0,0,0,0,0,0,0,0,0,0,0,0,0,0,0,0,0,0,0,0,0,0,0,0,0,0,0,0,0,0,0,0,0,0,0,0,0,0,0,0,0,0,0,0,0,0,0,0,0,0,0,0,0,0,0,0,0,0,0,0,0,0,0,0,0,0,0,0,0,0,0,0,0,0,0,0,0,0,0,0,0,0
0,0,0,0,0,0,0,0,0,0,0,0,0,0,0,0,0,0,0,0,0,0,0,0,0,0,0,0,0,0,0,0,0,0,0,0,0,0,0,0,0,0,0,0,0,0,0,0,0,0,0,0,0,4,5,7,9,11,15,15,15,20,20,20,20,20,20,25,25,30,30,35,35,35,40,40,40,45,45,50,50,55,55,55,55,55,55,55,55,60,60,60,60,60,60,60,60,55,55,55,55,55,50,50,50,50,50,50,55,55,55,55,50,50,50,50,50,65,90,90,90,90,90,90,90,90,90,90,90,85,85,80,75,75,65,60,55,50,45,35,30,30,35,35,40,45,50,50,55,60,60,60,55,55,50,50,45,40,23,12,4,0,0,0,0,0,0,0,0,0,0,0,0,0,0,0,0,0,0,0,0,0,0,0,0,0,0,0,0,0,0,0,0,0,0,0,0,0,0,0,0,0,0,0,0,0,0,0,0,0,0,0,0,0,0,0,0,0,0,0,0,0,0,0,0,0,0,0,0,0,0,0,0,0,0,0,0,0,0,0,0,0,0,0,0,0,0,0,0,0,0,0,0,0,0,0,0,0,0,0,0,0,0,0,0,0,0,0,0,0
0,0,0,0,0,0,0,0,0,0,0,0,0,0,0,0,0,0,0,0,0,0,0,0,0,0,0,0,0,0,0,0,0,0,0,0,0,0,0,0,0,0,0,0,0,0,0,0,0,0,0,0,1,5,6,8,10,15,15,20,20,20,20,20,20,20,20,20,25,30,30,35,35,35,40,40,35,40,45,45,50,50,50,55,55,55,55,55,55,55,60,60,55,55,55,55,55,55,55,55,55,50,50,50,50,50,50,50,50,55,55,55,50,50,50,50,55,50,85,90,90,90,90,95,95,90,90,90,90,90,85,85,80,75,70,65,60,55,50,40,35,35,30,30,35,40,45,45,50,55,55,55,50,50,45,45,35,30,22,15,4,0,0,0,0,0,0,0,0,0,0,0,0,0,0,0,0,0,0,0,0,0,0,0,0,0,0,0,0,0,0,0,0,0,0,0,0,0,0,0,0,0,0,0,0,0,0,0,0,0,0,0,0,0,0,0,0,0,0,0,0,0,0,0,0,0,0,0,0,0,0,0,0,0,0,0,0,0,0,0,0,0,0,0,0,0,0,0,0,0,0,0,0,0,0,0,0,0,0,0,0,0,0,0,0,0,0,0,0,0
0,0,0,0,0,0,0,0,0,0,0,0,0,0,0,0,0,0,0,0,0,0,0,0,0,0,0,0,0,0,0,0,0,0,0,0,0,0,0,0,0,0,0,0,0,0,0,0,0,0,0,0,2,3,7,9,12,15,15,20,20,20,20,20,20,20,25,25,25,30,30,30,35,35,40,40,30,30,35,45,45,50,50,50,50,55,55,55,55,55,55,55,55,55,55,55,55,55,55,55,55,50,50,50,50,50,50,50,50,55,55,55,55,50,50,55,55,50,70,90,90,90,90,95,95,95,90,90,90,90,85,85,80,80,75,65,60,50,45,50,40,40,35,30,30,30,35,40,40,45,45,45,45,45,40,35,30,20,14,8,1,0,0,0,0,0,0,0,0,0,0,0,0,0,0,0,0,0,0,0,0,0,0,0,0,0,0,0,0,0,0,0,0,0,0,0,0,0,0,0,0,0,0,0,0,0,0,0,0,0,0,0,0,0,0,0,0,0,0,0,0,0,0,0,0,0,0,0,0,0,0,0,0,0,0,0,0,0,0,0,0,0,0,0,0,0,0,0,0,0,0,0,0,0,0,0,0,0,0,0,0,0,0,0,0,0,0,0,0,0
0,0,0,0,0,0,0,0,0,0,0,0,0,0,0,0,0,0,0,0,0,0,0,0,0,0,0,0,0,0,0,0,0,0,0,0,0,0,0,0,0,0,0,0,0,0,0,0,0,0,0,0,1,5,6,10,13,15,20,20,20,20,20,20,20,20,25,25,25,25,30,30,30,35,40,40,35,35,35,35,45,45,45,50,50,50,50,50,50,50,50,55,55,55,55,55,55,55,55,55,55,50,50,50,50,50,45,45,50,55,60,55,55,55,55,60,60,60,55,90,90,90,90,95,95,95,95,90,90,90,90,85,85,80,75,70,60,55,45,45,45,40,35,30,30,30,30,30,35,35,35,40,40,35,35,30,21,16,10,1,0,0,0,0,0,0,0,0,0,0,0,0,0,0,0,0,0,0,0,0,0,0,0,0,0,0,0,0,0,0,0,0,0,0,0,0,0,0,0,0,0,0,0,0,0,0,0,0,0,0,0,0,0,0,0,0,0,0,0,0,0,0,0,0,0,0,0,0,0,0,0,0,0,0,0,0,0,0,0,0,0,0,0,0,0,0,0,0,0,0,0,0,0,0,0,0,0,0,0,0,0,0,0,0,0,0,0,0,0,0
0,0,0,0,0,0,0,0,0,0,0,0,0,0,0,0,0,0,0,0,0,0,0,0,0,0,0,0,0,0,0,0,0,0,0,0,0,0,0,0,0,0,0,0,0,0,0,0,0,0,0,0,2,5,8,12,14,15,20,20,20,20,20,20,20,20,25,25,25,25,30,30,30,35,35,35,35,40,45,55,45,45,45,45,45,45,45,45,45,50,50,50,50,50,55,55,55,55,55,55,50,50,50,50,50,50,45,50,55,55,60,60,60,60,60,60,60,60,55,95,95,90,90,95,95,95,95,95,90,90,90,85,85,80,75,70,60,50,45,45,45,45,40,30,30,25,25,25,30,30,30,30,30,30,25,22,18,17,11,2,0,0,0,0,0,0,0,0,0,0,0,0,0,0,0,0,0,0,0,0,0,0,0,0,0,0,0,0,0,0,0,0,0,0,0,0,0,0,0,0,0,0,0,0,0,0,0,0,0,0,0,0,0,0,0,0,0,0,0,0,0,0,0,0,0,0,0,0,0,0,0,0,0,0,0,0,0,0,0,0,0,0,0,0,0,0,0,0,0,0,0,0,0,0,0,0,0,0,0,0,0,0,0,0,0,0,0,0,0,0
0,0,0,0,0,0,0,0,0,0,0,0,0,0,0,0,0,0,0,0,0,0,0,0,0,0,0,0,0,0,0,0,0,0,0,0,0,0,0,0,0,0,0,0,0,0,0,0,0,0,0,0,4,6,9,12,14,15,20,20,20,20,20,20,20,20,25,25,25,25,30,30,30,30,35,35,35,40,55,60,45,40,40,40,40,40,40,35,30,45,45,45,50,50,50,50,50,55,55,55,50,50,50,50,45,45,45,55,55,55,60,60,60,65,65,65,65,60,60,80,95,90,90,95,95,95,95,95,90,90,90,85,85,85,80,75,70,55,45,45,45,40,35,30,25,25,25,25,25,25,25,25,22,20,17,15,16,15,10,1,0,0,0,0,0,0,0,0,0,0,0,0,0,0,0,0,0,0,0,0,0,0,0,0,0,0,0,0,0,0,0,0,0,0,0,0,0,0,0,0,0,0,0,0,0,0,0,0,0,0,0,0,0,0,0,0,0,0,0,0,0,0,0,0,0,0,0,0,0,0,0,0,0,0,0,0,0,0,0,0,0,0,0,0,0,0,0,0,0,0,0,0,0,0,0,0,0,0,0,0,0,0,0,0,0,0,0,0,0,0
0,0,0,0,0,0,0,0,0,0,0,0,0,0,0,0,0,0,0,0,0,0,0,0,0,0,0,0,0,0,0,0,0,0,0,0,0,0,0,0,0,0,0,0,0,0,0,0,0,0,0,1,5,7,10,12,15,15,15,16,20,20,20,20,20,20,25,25,25,25,30,30,30,30,35,35,35,35,40,45,35,35,35,35,35,35,35,30,30,25,35,40,45,50,50,50,50,50,50,50,50,50,50,45,45,45,45,55,55,60,60,60,65,65,65,65,65,65,60,60,95,90,90,90,95,95,95,95,95,90,90,90,85,85,80,75,70,60,55,45,45,40,35,30,25,25,25,25,25,25,21,19,19,15,12,13,12,8,1,0,0,0,0,0,0,0,0,0,0,0,0,0,0,0,0,0,0,0,0,0,0,0,0,0,0,0,0,0,0,0,0,0,0,0,0,0,0,0,0,0,0,0,0,0,0,0,0,0,0,0,0,0,0,0,0,0,0,0,0,0,0,0,0,0,0,0,0,0,0,0,0,0,0,0,0,0,0,0,0,0,0,0,0,0,0,0,0,0,0,0,0,0,0,0,0,0,0,0,0,0,0,0,0,0,0,0,0,0,0,0
0,0,0,0,0,0,0,0,0,0,0,0,0,0,0,0,0,0,0,0,0,0,0,0,0,0,0,0,0,0,0,0,0,0,0,0,0,0,0,0,0,0,0,0,0,0,0,0,0,0,0,1,5,7,10,14,17,15,15,15,15,16,16,20,20,20,25,25,25,25,25,30,30,30,35,35,35,35,35,30,30,30,30,30,30,30,30,30,25,25,25,35,40,45,45,45,50,50,50,50,50,50,50,45,45,45,50,55,60,60,60,60,65,65,65,65,65,65,65,65,60,95,90,90,95,95,95,95,95,90,90,90,85,85,80,75,75,65,60,50,45,40,40,35,30,25,25,25,25,21,19,16,15,12,9,7,4,1,0,0,0,0,0,0,0,0,0,0,0,0,0,0,0,0,0,0,0,0,0,0,0,0,0,0,0,0,0,0,0,0,0,0,0,0,0,0,0,0,0,0,0,0,0,0,0,0,0,0,0,0,0,0,0,0,0,0,0,0,0,0,0,0,0,0,0,0,0,0,0,0,0,0,0,0,0,0,0,0,0,0,0,0,0,0,0,0,0,0,0,0,0,0,0,0,0,0,0,0,0,0,0,0,0,0,0,0,0,0,0,0
0,0,0,0,0,0,0,0,0,0,0,0,0,0,0,0,0,0,0,0,0,0,0,0,0,0,0,0,0,0,0,0,0,0,0,0,0,0,0,0,0,0,0,0,0,0,0,0,0,0,0,2,4,9,10,15,15,15,13,13,14,14,15,16,20,20,20,25,25,25,25,30,30,30,30,30,30,30,30,30,30,30,30,30,25,25,25,25,25,25,25,25,35,40,45,45,45,45,45,50,50,50,45,45,45,45,50,60,60,60,60,60,65,65,65,65,65,65,65,65,65,70,95,90,95,95,95,95,95,95,90,90,85,85,80,80,75,70,60,55,50,45,40,35,30,25,25,25,21,20,18,15,12,11,6,4,1,0,0,0,0,0,0,0,0,0,0,0,0,0,0,0,0,0,0,0,0,0,0,0,0,0,0,0,0,0,0,0,0,0,0,0,0,0,0,0,0,0,0,0,0,0,0,0,0,0,0,0,0,0,0,0,0,0,0,0,0,0,0,0,0,0,0,0,0,0,0,0,0,0,0,0,0,0,0,0,0,0,0,0,0,0,0,0,0,0,0,0,0,0,0,0,0,0,0,0,0,0,0,0,0,0,0,0,0,0,0,0,0,0
0,0,0,0,0,0,0,0,0,0,0,0,0,0,0,0,0,0,0,0,0,0,0,0,0,0,0,0,0,0,0,0,0,0,0,0,0,0,0,0,0,0,0,0,0,0,0,0,0,0,0,1,7,9,15,17,14,11,11,12,12,13,14,15,16,14,20,20,25,25,25,25,25,25,25,25,25,25,25,25,25,25,25,25,25,25,21,19,16,17,15,17,25,35,40,40,40,40,45,45,45,45,45,45,45,45,50,60,60,60,60,60,60,65,65,65,65,65,65,65,65,65,95,95,95,95,95,95,95,95,90,90,90,85,85,80,75,70,65,55,50,45,40,35,30,25,25,21,19,18,15,11,9,7,4,3,0,0,0,0,0,0,0,0,0,0,0,0,0,0,0,0,0,0,0,0,0,0,0,0,0,0,0,0,0,0,0,0,0,0,0,0,0,0,0,0,0,0,0,0,0,0,0,0,0,0,0,0,0,0,0,0,0,0,0,0,0,0,0,0,0,0,0,0,0,0,0,0,0,0,0,0,0,0,0,0,0,0,0,0,0,0,0,0,0,0,0,0,0,0,0,0,0,0,0,0,0,0,0,0,0,0,0,0,0,0,0,0,0,0
0,0,0,0,0,0,0,0,0,0,0,0,0,0,0,0,0,0,0,0,0,0,0,0,0,0,0,0,0,0,0,0,0,0,0,0,0,0,0,0,0,0,0,0,0,0,0,0,0,0,0,1,3,9,19,15,9,8,9,10,11,11,12,13,14,15,16,20,20,20,20,20,20,20,20,20,20,20,20,20,20,20,20,19,19,21,19,17,15,16,16,14,13,25,35,35,40,40,40,40,45,45,45,45,45,45,55,60,60,60,60,60,60,65,65,65,65,65,65,65,65,65,65,100,95,95,95,95,95,95,95,90,90,85,85,80,75,70,65,60,55,50,45,40,35,30,25,20,17,15,13,9,7,3,1,0,0,0,0,0,0,0,0,0,0,0,0,0,0,0,0,0,0,0,0,0,0,0,0,0,0,0,0,0,0,0,0,0,0,0,0,0,0,0,0,0,0,0,0,0,0,0,0,0,0,0,0,0,0,0,0,0,0,0,0,0,0,0,0,0,0,0,0,0,0,0,0,0,0,0,0,0,0,0,0,0,0,0,0,0,0,0,0,0,0,0,0,0,0,0,0,0,0,0,0,0,0,0,0,0,0,0,0,0,0,0,0,0,0,0
0,0,0,0,0,0,0,0,0,0,0,0,0,0,0,0,0,0,0,0,0,0,0,0,0,0,0,0,0,0,0,0,0,0,0,0,0,0,0,0,0,0,0,0,0,0,0,0,0,0,1,3,5,10,18,14,9,7,8,8,9,10,11,12,13,14,15,16,16,20,20,20,20,20,20,20,20,20,20,20,20,17,15,13,13,14,14,12,12,12,10,12,12,19,25,30,35,35,35,35,40,40,45,45,45,45,45,60,60,60,60,60,60,65,65,65,65,65,65,65,65,65,60,100,95,95,95,95,95,95,95,90,90,85,85,80,75,65,60,60,55,50,45,40,35,30,25,22,15,14,11,8,6,2,0,0,0,0,0,0,0,0,0,0,0,0,0,0,0,0,0,0,0,0,0,0,0,0,0,0,0,0,0,0,0,0,0,0,0,0,0,0,0,0,0,0,0,0,0,0,0,0,0,0,0,0,0,0,0,0,0,0,0,0,0,0,0,0,0,0,0,0,0,0,0,0,0,0,0,0,0,0,0,0,0,0,0,0,0,0,0,0,0,0,0,0,0,0,0,0,0,0,0,0,0,0,0,0,0,0,0,0,0,0,0,0,0,0,0,0
0,0,0,0,0,0,0,0,0,0,0,0,0,0,0,0,0,0,0,0,0,0,0,0,0,0,0,0,0,0,0,0,0,0,0,0,0,0,0,0,0,0,0,0,0,0,0,0,0,0,2,5,8,16,14,14,10,6,7,8,8,9,9,11,12,13,14,14,16,15,16,16,16,16,15,16,16,16,15,15,15,15,13,11,6,8,6,10,9,9,9,8,11,10,18,21,25,30,35,35,35,40,40,40,40,45,50,60,60,60,60,60,60,65,65,65,65,65,65,65,65,65,60,60,100,95,95,95,95,95,95,90,90,85,85,80,75,70,65,60,55,50,48,45,39,34,23,15,16,15,9,5,3,1,0,0,0,0,0,0,0,0,0,0,0,0,0,0,0,0,0,0,0,0,0,0,0,0,0,0,0,0,0,0,0,0,0,0,0,0,0,0,0,0,0,0,0,0,0,0,0,0,0,0,0,0,0,0,0,0,0,0,0,0,0,0,0,0,0,0,0,0,0,0,0,0,0,0,0,0,0,0,0,0,0,0,0,0,0,0,0,0,0,0,0,0,0,0,0,0,0,0,0,0,0,0,0,0,0,0,0,0,0,0,0,0,0,0,0,0
0,0,0,0,0,0,0,0,0,0,0,0,0,0,0,0,0,0,0,0,0,0,0,0,0,0,0,0,0,0,0,0,0,0,0,0,0,0,0,0,0,0,0,0,0,0,0,0,0,0,1,4,7,14,12,10,7,5,6,5,6,8,8,9,10,11,13,13,14,13,15,15,16,15,16,16,14,14,14,14,13,13,11,7,2,1,1,0,1,6,6,7,5,9,8,11,19,25,30,35,35,35,40,40,40,45,50,55,60,60,60,60,60,60,65,65,65,65,65,65,65,65,65,65,100,95,95,95,95,95,95,90,90,85,85,80,75,70,65,60,55,50,47,43,39,33,25,15,14,12,9,7,2,0,0,0,0,0,0,0,0,0,0,0,0,0,0,0,0,0,0,0,0,0,0,0,0,0,0,0,0,0,0,0,0,0,0,0,0,0,0,0,0,0,0,0,0,0,0,0,0,0,0,0,0,0,0,0,0,0,0,0,0,0,0,0,0,0,0,0,0,0,0,0,0,0,0,0,0,0,0,0,0,0,0,0,0,0,0,0,0,0,0,0,0,0,0,0,0,0,0,0,0,0,0,0,0,0,0,0,0,0,0,0,0,0,0,0,0,0
0,0,0,0,0,0,0,0,0,0,0,0,0,0,0,0,0,0,0,0,0,0,0,0,0,0,0,0,0,0,0,0,0,0,0,0,0,0,0,0,0,0,0,0,0,0,0,0,2,3,5,1,4,12,11,7,5,4,3,3,4,7,8,8,9,10,11,13,13,13,12,13,10,12,11,13,11,12,10,11,12,11,8,3,2,0,0,0,0,1,3,3,5,4,7,6,10,20,25,30,30,35,35,40,40,45,50,55,60,60,60,60,60,60,65,65,65,65,65,65,65,65,65,65,80,90,90,95,95,95,95,90,90,85,85,80,75,70,65,60,54,52,47,43,39,35,26,20,13,11,10,7,5,1,0,0,0,0,0,0,0,0,0,0,0,0,0,0,0,0,0,0,0,0,0,0,0,0,0,0,0,0,0,0,0,0,0,0,0,0,0,0,0,0,0,0,0,0,0,0,0,0,0,0,0,0,0,0,0,0,0,0,0,0,0,0,0,0,0,0,0,0,0,0,0,0,0,0,0,0,0,0,0,0,0,0,0,0,0,0,0,0,0,0,0,0,0,0,0,0,0,0,0,0,0,0,0,0,0,0,0,0,0,0,0,0,0,0,0,0
0,0,0,0,0,0,0,0,0,0,0,0,0,0,0,0,0,0,0,0,0,0,0,0,0,0,0,0,0,0,0,0,0,0,0,0,0,0,0,0,0,0,0,0,0,0,1,1,4,7,7,7,7,6,11,8,7,4,1,3,2,4,7,8,9,9,11,12,15,15,11,11,9,11,11,8,10,10,9,8,10,1,0,0,0,0,0,0,0,0,0,1,1,1,6,5,6,13,20,25,30,30,35,35,40,45,50,55,60,60,60,60,60,60,65,65,65,65,65,65,65,60,50,50,65,85,90,95,97,97,95,90,90,85,85,80,75,70,70,60,55,51,47,45,42,33,27,23,13,10,9,8,5,3,0,0,0,0,0,0,0,0,0,0,0,0,0,0,0,0,0,0,0,0,0,0,0,0,0,0,0,0,0,0,0,0,0,0,0,0,0,0,0,0,0,0,0,0,0,0,0,0,0,0,0,0,0,0,0,0,0,0,0,0,0,0,0,0,0,0,0,0,0,0,0,0,0,0,0,0,0,0,0,0,0,0,0,0,0,0,0,0,0,0,0,0,0,0,0,0,0,0,0,0,0,0,0,0,0,0,0,0,0,0,0,0,0,0,0,0
0,0,0,0,0,0,0,0,0,0,0,0,0,0,0,0,0,0,0,0,0,0,0,0,0,0,0,0,0,0,0,0,0,0,0,0,0,0,0,0,0,0,0,0,0,1,1,4,7,9,8,10,9,6,11,9,6,3,1,1,2,5,7,7,8,9,11,13,14,13,9,9,10,8,10,9,9,6,3,9,3,1,0,0,0,0,0,0,0,0,0,0,0,0,1,3,3,9,18,25,30,30,30,35,40,45,50,55,60,60,60,60,60,65,65,65,65,65,65,65,65,65,60,50,50,60,90,97,97,97,95,95,90,85,85,80,75,75,70,65,57,54,47,46,43,38,28,26,15,10,9,7,5,3,0,0,0,0,0,0,0,0,0,0,0,0,0,0,0,0,0,0,0,0,0,0,0,0,0,0,0,0,0,0,0,0,0,0,0,0,0,0,0,0,0,0,0,0,0,0,0,0,0,0,0,0,0,0,0,0,0,0,0,0,0,0,0,0,0,0,0,0,0,0,0,0,0,0,0,0,0,0,0,0,0,0,0,0,0,0,0,0,0,0,0,0,0,0,0,0,0,0,0,0,0,0,0,0,0,0,0,0,0,0,0,0,0,0,0,0
0,0,0,0,0,0,0,0,0,0,0,0,0,0,0,0,0,0,0,0,0,0,0,0,0,0,0,0,0,0,0,0,0,0,0,0,0,0,0,0,0,0,0,0,0,1,3,5,8,10,10,11,13,8,10,8,5,4,1,1,4,5,6,7,8,9,12,13,12,12,9,7,7,8,8,7,5,4,4,6,3,0,0,0,0,0,0,0,0,0,0,0,0,0,0,1,1,4,10,20,25,26,30,30,40,45,50,52,60,61,60,60,60,65,65,65,65,65,65,65,65,65,60,60,50,45,90,97,98,98,97,95,90,90,85,80,80,75,70,65,58,56,48,45,41,32,30,25,18,11,9,8,5,4,1,0,0,0,0,0,0,0,0,0,0,0,0,0,0,0,0,0,0,0,0,0,0,0,0,0,0,0,0,0,0,0,0,0,0,0,0,0,0,0,0,0,0,0,0,0,0,0,0,0,0,0,0,0,0,0,0,0,0,0,0,0,0,0,0,0,0,0,0,0,0,0,0,0,0,0,0,0,0,0,0,0,0,0,0,0,0,0,0,0,0,0,0,0,0,0,0,0,0,0,0,0,0,0,0,0,0,0,0,0,0,0,0,0,0,0
0,0,0,0,0,0,0,0,0,0,0,0,0,0,0,0,0,0,0,0,0,0,0,0,0,0,0,0,0,0,0,0,0,0,0,0,0,0,0,0,0,0,0,0,0,1,4,8,9,11,12,14,11,10,9,7,4,2,1,3,4,6,6,7,7,9,11,12,10,9,7,6,5,6,6,4,1,1,3,4,1,0,0,0,0,0,0,0,0,0,0,0,0,0,0,0,0,1,6,11,22,25,28,31,35,40,45,50,56,62,64,64,64,65,65,65,66,65,65,67,65,65,64,60,55,47,55,97,97,99,98,97,94,90,89,85,80,75,72,65,58,54,50,45,44,32,28,22,19,12,9,7,5,4,1,0,0,0,0,0,0,0,0,0,0,0,0,0,0,0,0,0,0,0,0,0,0,0,0,0,0,0,0,0,0,0,0,0,0,0,0,0,0,0,0,0,0,0,0,0,0,0,0,0,0,0,0,0,0,0,0,0,0,0,0,0,0,0,0,0,0,0,0,0,0,0,0,0,0,0,0,0,0,0,0,0,0,0,0,0,0,0,0,0,0,0,0,0,0,0,0,0,0,0,0,0,0,0,0,0,0,0,0,0,0,0,0,0,0,0
0,0,0,0,0,0,0,0,0,0,0,0,0,0,0,0,0,0,0,0,0,0,0,0,0,0,0,0,0,0,0,0,0,0,0,0,0,0,0,0,0,1,1,1,1,2,2,9,10,11,13,12,11,10,9,6,4,2,2,2,3,5,6,7,8,9,8,10,7,6,2,2,1,1,3,2,0,0,0,0,0,0,0,0,0,0,0,0,0,0,0,0,0,0,0,0,0,0,1,11,16,22,25,29,32,38,43,47,55,60,64,64,64,64,65,65,66,65,65,65,65,65,66,63,59,50,50,95,96,99,99,98,96,91,88,85,80,75,72,65,60,55,51,47,43,32,28,26,17,13,9,7,6,4,0,0,0,0,0,0,0,0,0,0,0,0,0,0,0,0,0,0,0,0,0,0,0,0,0,0,0,0,0,0,0,0,0,0,0,0,0,0,0,0,0,0,0,0,0,0,0,0,0,0,0,0,0,0,0,0,0,0,0,0,0,0,0,0,0,0,0,0,0,0,0,0,0,0,0,0,0,0,0,0,0,0,0,0,0,0,0,0,0,0,0,0,0,0,0,0,0,0,0,0,0,0,0,0,0,0,0,0,0,0,0,0,0,0,0,0
0,0,0,0,0,0,0,0,0,0,0,0,0,0,0,0,0,0,0,0,0,0,0,0,0,0,0,0,0,0,0,0,0,0,0,0,1,1,1,1,1,1,1,2,2,4,9,10,11,12,14,11,11,10,8,5,4,3,0,3,4,5,5,6,7,8,8,6,4,1,1,0,0,0,0,0,0,0,0,0,0,0,0,0,0,0,0,0,0,0,0,0,0,0,0,0,0,0,1,7,14,20,24,26,27,38,43,48,51,58,63,64,63,64,64,65,66,66,65,65,65,65,66,64,62,56,53,90,97,99,99,98,96,94,88,86,83,75,70,65,62,56,50,46,45,34,30,25,19,13,11,7,6,4,1,0,0,0,0,0,0,0,0,0,0,0,0,0,0,0,0,0,0,0,0,0,0,0,0,0,0,0,0,0,0,0,0,0,0,0,0,0,0,0,0,0,0,0,0,0,0,0,0,0,0,0,0,0,0,0,0,0,0,0,0,0,0,0,0,0,0,0,0,0,0,0,0,0,0,0,0,0,0,0,0,0,0,0,0,0,0,0,0,0,0,0,0,0,0,0,0,0,0,0,0,0,0,0,0,0,0,0,0,0,0,0,0,0,0,0
0,0,0,0,0,0,0,0,0,0,0,0,0,0,0,0,0,0,0,0,0,0,0,0,0,0,0,0,0,0,0,0,0,0,0,1,1,2,2,2,2,2,2,1,4,8,9,10,11,13,14,12,10,8,6,4,3,2,2,3,4,5,5,6,7,6,6,5,3,0,0,0,0,0,0,0,0,0,0,0,0,0,0,0,0,0,0,0,0,0,0,0,0,0,0,0,0,0,0,3,10,14,19,24,25,34,42,45,50,53,60,63,63,63,64,64,65,66,65,65,65,65,66,66,63,61,56,80,95,97,99,98,97,93,88,86,82,78,71,65,61,60,54,48,42,38,33,27,19,15,10,9,7,5,2,0,0,0,0,0,0,0,0,0,0,0,0,0,0,0,0,0,0,0,0,0,0,0,0,0,0,0,0,0,0,0,0,0,0,0,0,0,0,0,0,0,0,0,0,0,0,0,0,0,0,0,0,0,0,0,0,0,0,0,0,0,0,0,0,0,0,0,0,0,0,0,0,0,0,0,0,0,0,0,0,0,0,0,0,0,0,0,0,0,0,0,0,0,0,0,0,0,0,0,0,0,0,0,0,0,0,0,0,0,0,0,0,0,0,0
0,0,0,0,0,0,0,0,0,0,0,0,0,0,0,0,0,0,0,0,0,0,0,0,0,0,0,0,0,0,0,0,0,0,0,1,1,2,3,3,3,3,4,4,8,8,9,10,11,13,12,10,8,6,6,3,3,2,2,2,3,4,5,5,6,5,5,3,1,0,0,0,0,0,0,0,0,0,0,0,0,0,0,0,0,0,0,0,0,0,0,0,0,0,0,0,0,0,0,1,3,11,18,21,25,30,39,43,49,53,59,61,62,62,63,63,65,66,66,65,67,67,67,66,65,63,58,55,85,96,99,99,97,94,91,87,84,79,71,70,62,59,50,46,41,37,34,25,22,16,10,10,7,5,4,0,0,0,0,0,0,0,0,0,0,0,0,0,0,0,0,0,0,0,0,0,0,0,0,0,0,0,0,0,0,0,0,0,0,0,0,0,0,0,0,0,0,0,0,0,0,0,0,0,0,0,0,0,0,0,0,0,0,0,0,0,0,0,0,0,0,0,0,0,0,0,0,0,0,0,0,0,0,0,0,0,0,0,0,0,0,0,0,0,0,0,0,0,0,0,0,0,0,0,0,0,0,0,0,0,0,0,0,0,0,0,0,0,0,0
0,0,0,0,0,0,0,0,0,0,0,0,0,0,0,0,0,0,0,0,0,0,0,0,0,0,0,0,0,0,0,0,0,0,1,1,2,2,3,4,5,4,4,7,8,8,9,10,11,13,12,9,7,6,5,3,2,2,0,2,2,3,4,5,5,4,3,1,0,0,0,0,0,0,0,0,0,0,0,0,0,0,0,0,0,0,0,0,0,0,0,0,0,0,0,0,0,0,0,1,2,9,13,20,24,29,37,44,47,50,54,60,62,62,62,63,64,65,66,65,65,65,65,65,66,64,60,54,84,94,99,99,97,94,91,88,83,81,76,70,65,59,50,46,44,35,31,26,22,14,10,10,8,6,5,0,0,0,0,0,0,0,0,0,0,0,0,0,0,0,0,0,0,0,0,0,0,0,0,0,0,0,0,0,0,0,0,0,0,0,0,0,0,0,0,0,0,0,0,0,0,0,0,0,0,0,0,0,0,0,0,0,0,0,0,0,0,0,0,0,0,0,0,0,0,0,0,0,0,0,0,0,0,0,0,0,0,0,0,0,0,0,0,0,0,0,0,0,0,0,0,0,0,0,0,0,0,0,0,0,0,0,0,0,0,0,0,0,0,0
0,0,0,0,0,0,0,0,0,0,0,0,0,0,0,0,0,0,0,0,0,0,0,0,0,0,0,0,0,0,0,0,0,0,1,1,2,3,3,3,4,4,6,8,8,8,9,10,12,12,11,9,7,4,4,3,2,2,2,2,3,1,3,3,4,3,2,0,0,0,0,0,0,0,0,0,0,0,0,0,0,0,0,0,0,0,0,0,0,0,0,0,0,0,0,0,0,0,0,0,1,6,10,16,20,28,36,39,46,49,54,58,61,61,62,63,64,65,66,65,65,65,65,67,66,64,57,55,82,90,99,99,98,94,91,89,85,80,75,72,62,56,50,45,43,36,31,27,19,17,11,10,9,8,5,0,0,0,0,0,0,0,0,0,0,0,0,0,0,0,0,0,0,0,0,0,0,0,0,0,0,0,0,0,0,0,0,0,0,0,0,0,0,0,0,0,0,0,0,0,0,0,0,0,0,0,0,0,0,0,0,0,0,0,0,0,0,0,0,0,0,0,0,0,0,0,0,0,0,0,0,0,0,0,0,0,0,0,0,0,0,0,0,0,0,0,0,0,0,0,0,0,0,0,0,0,0,0,0,0,0,0,0,0,0,0,0,0,0,0
0,0,0,0,0,0,0,0,0,0,0,0,0,0,0,0,0,0,0,0,0,0,0,0,0,0,0,0,0,0,0,0,0,1,2,2,1,2,3,3,4,5,6,8,8,8,9,10,11,11,10,8,6,4,3,3,2,3,3,3,1,1,1,2,1,1,0,0,0,0,0,0,0,0,0,0,0,0,0,0,0,0,0,0,0,0,0,0,0,0,0,0,0,0,0,0,0,0,0,0,0,2,8,14,18,24,32,37,44,48,52,56,59,61,61,62,63,64,65,66,65,65,65,65,66,65,60,55,50,83,97,99,97,94,91,88,85,81,77,72,62,60,50,44,41,34,31,28,22,16,13,11,9,7,6,0,0,0,0,0,0,0,0,0,0,0,0,0,0,0,0,0,0,0,0,0,0,0,0,0,0,0,0,0,0,0,0,0,0,0,0,0,0,0,0,0,0,0,0,0,0,0,0,0,0,0,0,0,0,0,0,0,0,0,0,0,0,0,0,0,0,0,0,0,0,0,0,0,0,0,0,0,0,0,0,0,0,0,0,0,0,0,0,0,0,0,0,0,0,0,0,0,0,0,0,0,0,0,0,0,0,0,0,0,0,0,0,0,0,0
0,0,0,0,0,0,0,0,0,0,0,0,0,0,0,0,0,0,0,0,0,0,0,0,0,0,0,0,0,0,0,0,0,1,2,2,3,3,3,4,5,7,7,8,8,8,9,10,11,11,10,7,5,4,3,2,2,4,4,3,3,3,3,1,1,1,0,0,0,0,0,0,0,0,0,0,0,0,0,0,0,0,0,0,0,0,0,0,0,0,0,0,0,0,0,0,0,0,0,0,0,2,4,10,17,23,28,37,40,47,50,54,57,60,61,62,63,64,65,66,66,66,66,67,67,66,63,58,48,84,90,98,97,94,92,89,86,82,79,73,67,58,52,44,41,36,31,27,24,18,13,11,9,8,5,0,0,0,0,0,0,0,0,0,0,0,0,0,0,0,0,0,0,0,0,0,0,0,0,0,0,0,0,0,0,0,0,0,0,0,0,0,0,0,0,0,0,0,0,0,0,0,0,0,0,0,0,0,0,0,0,0,0,0,0,0,0,0,0,0,0,0,0,0,0,0,0,0,0,0,0,0,0,0,0,0,0,0,0,0,0,0,0,0,0,0,0,0,0,0,0,0,0,0,0,0,0,0,0,0,0,0,0,0,0,0,0,0,0,0
0,0,0,0,0,0,0,0,0,0,0,0,0,0,0,0,0,0,0,0,0,0,0,0,0,0,0,0,0,0,0,0,1,1,2,2,3,3,4,4,7,7,7,8,8,8,9,10,11,10,8,7,4,3,2,2,2,4,4,1,2,3,3,2,1,1,0,0,0,0,0,0,0,0,0,0,0,0,0,0,0,0,0,0,0,0,0,0,0,0,0,0,0,0,0,0,0,0,0,0,0,1,2,10,15,22,27,31,37,45,49,53,57,60,60,61,63,64,65,66,66,66,66,66,67,67,64,61,55,86,88,97,97,94,92,89,86,84,81,74,70,54,48,44,41,37,33,26,22,16,13,10,9,7,6,0,0,0,0,0,0,0,0,0,0,0,0,0,0,0,0,0,0,0,0,0,0,0,0,0,0,0,0,0,0,0,0,0,0,0,0,0,0,0,0,0,0,0,0,0,0,0,0,0,0,0,0,0,0,0,0,0,0,0,0,0,0,0,0,0,0,0,0,0,0,0,0,0,0,0,0,0,0,0,0,0,0,0,0,0,0,0,0,0,0,0,0,0,0,0,0,0,0,0,0,0,0,0,0,0,0,0,0,0,0,0,0,0,0,0
0,0,0,0,0,0,0,0,0,0,0,0,0,0,0,0,0,0,0,0,0,0,0,0,0,0,0,0,0,0,0,0,1,1,2,3,3,4,5,6,7,7,7,7,8,8,9,10,9,9,7,5,4,3,3,2,2,4,3,1,1,2,2,1,1,0,0,0,0,0,0,0,0,0,0,0,0,0,0,0,0,0,0,0,0,0,0,0,0,0,0,0,0,0,0,0,0,0,0,0,0,0,1,9,11,19,24,27,39,43,48,50,55,58,60,61,62,63,64,66,66,66,66,66,67,67,66,63,58,85,87,94,96,94,91,89,86,85,82,77,67,58,51,44,40,36,31,26,24,18,16,11,9,8,3,0,0,0,0,0,0,0,0,0,0,0,0,0,0,0,0,0,0,0,0,0,0,0,0,0,0,0,0,0,0,0,0,0,0,0,0,0,0,0,0,0,0,0,0,0,0,0,0,0,0,0,0,0,0,0,0,0,0,0,0,0,0,0,0,0,0,0,0,0,0,0,0,0,0,0,0,0,0,0,0,0,0,0,0,0,0,0,0,0,0,0,0,0,0,0,0,0,0,0,0,0,0,0,0,0,0,0,0,0,0,0,0,0,0,0
0,0,0,0,0,0,0,0,0,0,0,0,0,0,0,0,0,0,0,0,0,0,0,0,0,0,0,0,0,0,0,0,0,1,2,3,4,5,6,7,7,7,7,7,8,8,9,10,9,8,6,4,3,3,3,3,3,3,2,1,0,1,1,1,0,0,0,0,0,0,0,0,0,0,0,0,0,0,0,0,0,0,0,0,0,0,0,0,0,0,0,0,0,0,0,0,0,0,0,0,0,0,0,8,10,16,22,28,33,40,46,50,55,58,60,61,61,63,64,65,66,66,66,66,67,67,66,65,60,56,86,91,96,94,93,89,86,85,80,78,71,60,50,45,40,34,32,28,23,17,15,11,10,8,4,0,0,0,0,0,0,0,0,0,0,0,0,0,0,0,0,0,0,0,0,0,0,0,0,0,0,0,0,0,0,0,0,0,0,0,0,0,0,0,0,0,0,0,0,0,0,0,0,0,0,0,0,0,0,0,0,0,0,0,0,0,0,0,0,0,0,0,0,0,0,0,0,0,0,0,0,0,0,0,0,0,0,0,0,0,0,0,0,0,0,0,0,0,0,0,0,0,0,0,0,0,0,0,0,0,0,0,0,0,0,0,0,0,0,0
0,0,0,0,0,0,0,0,0,0,0,0,0,0,0,0,0,0,0,0,0,0,0,0,0,0,0,0,0,0,0,0,0,1,2,2,4,5,7,7,7,7,7,7,8,8,9,9,9,7,5,4,3,3,3,3,3,3,1,0,0,0,0,0,0,0,0,0,0,0,0,0,0,0,0,0,0,0,0,0,0,0,0,0,0,0,0,0,0,0,0,0,0,0,0,0,0,0,0,0,0,0,0,6,9,15,20,25,32,38,46,49,54,56,59,60,61,62,63,64,66,66,66,67,67,67,67,66,62,60,83,87,94,94,90,89,87,85,80,78,72,60,48,44,40,34,32,28,25,18,13,11,10,8,4,0,0,0,0,0,0,0,0,0,0,0,0,0,0,0,0,0,0,0,0,0,0,0,0,0,0,0,0,0,0,0,0,0,0,0,0,0,0,0,0,0,0,0,0,0,0,0,0,0,0,0,0,0,0,0,0,0,0,0,0,0,0,0,0,0,0,0,0,0,0,0,0,0,0,0,0,0,0,0,0,0,0,0,0,0,0,0,0,0,0,0,0,0,0,0,0,0,0,0,0,0,0,0,0,0,0,0,0,0,0,0,0,0,0,0
0,0,0,0,0,0,0,0,0,0,0,0,0,0,0,0,0,0,0,0,0,0,0,0,0,0,0,0,0,0,0,0,0,1,3,3,4,6,7,7,7,7,7,7,8,8,9,8,8,6,4,3,3,3,3,4,3,1,1,0,0,0,0,0,0,0,0,0,0,0,0,0,0,0,0,0,0,0,0,0,0,0,0,0,0,0,0,0,0,0,0,0,0,0,0,0,0,0,0,0,0,0,0,1,9,16,20,26,29,35,45,47,51,54,57,59,60,62,63,64,65,66,66,67,67,67,67,66,65,62,83,87,92,93,90,88,86,85,82,79,70,67,50,44,37,34,31,26,24,18,13,11,10,10,6,0,0,0,0,0,0,0,0,0,0,0,0,0,0,0,0,0,0,0,0,0,0,0,0,0,0,0,0,0,0,0,0,0,0,0,0,0,0,0,0,0,0,0,0,0,0,0,0,0,0,0,0,0,0,0,0,0,0,0,0,0,0,0,0,0,0,0,0,0,0,0,0,0,0,0,0,0,0,0,0,0,0,0,0,0,0,0,0,0,0,0,0,0,0,0,0,0,0,0,0,0,0,0,0,0,0,0,0,0,0,0,0,0,0,0
0,0,0,0,0,0,0,0,0,0,0,0,0,0,0,0,0,0,0,0,0,0,0,0,0,0,0,0,0,0,0,0,1,2,3,4,6,7,7,7,7,7,7,7,8,9,9,8,6,5,3,3,3,3,4,4,2,1,0,0,0,0,0,0,0,0,0,0,0,0,0,0,0,0,0,0,0,0,0,0,0,0,0,0,0,0,0,0,0,0,0,0,0,0,0,0,0,0,0,0,0,0,0,0,8,10,17,25,27,35,41,47,50,54,57,59,60,61,63,64,65,65,66,66,66,67,67,65,65,61,79,82,89,92,91,87,86,84,81,77,73,68,57,47,40,33,30,26,25,16,14,12,10,10,7,0,0,0,0,0,0,0,0,0,0,0,0,0,0,0,0,0,0,0,0,0,0,0,0,0,0,0,0,0,0,0,0,0,0,0,0,0,0,0,0,0,0,0,0,0,0,0,0,0,0,0,0,0,0,0,0,0,0,0,0,0,0,0,0,0,0,0,0,0,0,0,0,0,0,0,0,0,0,0,0,0,0,0,0,0,0,0,0,0,0,0,0,0,0,0,0,0,0,0,0,0,0,0,0,0,0,0,0,0,0,0,0,0,0,0
