0,0,0,0,0,0,0,0,0,0,0,0,0,0,0,0,0,0,0,0,0,0,0,0,0,0,0,0,0,0,0,0,0,0,0,0,0,0,0,0,0,0,0,0,0,0,0,0,0,0,0,0,0,0,0,0,0,0,0,0,0,0,0,0,0,0,0,0,0,0,0,0,0,0,0,0,0,0,0,0,0,0,0,0,0,0,0,0,0,0,0,0,0,0,0,0,0,0,0,0,0,0,0,0,0,0,0,0,0,0,0,0,0,0,0,0,0,0,1,4,5,5,6,6,6,6,4,1,0,0,0,0,0,0,1,2,3,3,3,3,3,1,2,1,13,13,15,15,20,20,20,25,25,25,25,25,25,30,35,53,40,45,55,60,65,65,70,70,75,75,75,75,75,80,90,85,80,70,70,75,75,85,90,95,95,90,95,115,125,130,135,135,140,150,155,155,155,155,150,150,155,185,205,205,200,185,185,190,195,180,180,195,185,175,190,190,175,160,155,165,175,180,180,170,140,140,140,130,130,130,130,130,130,130,120,110,110,110,120,120,120,120,130,135,130,135,135,135,120,120,120,110,80,70,60,60,50,50,60,60,60,60,50,40,40,70,110,110,130,110,120,120,150,190,200,190,160,150,130,120,120,110,100,110,120,110,110,110,100,100,110,120,130,130,140,120,120,140,150,130,100,120,150,150,130,90,70,70,70,90,90,80,70,70,50,50,50,50,48,46,44,41,39,38,36,33,28,29,32,31,30,30,9,7,3,1,1,0,0,0,0,0,0,0,0,0,0,0,0,0,0,0,0,0,0,0,0,0,0,5,10,60,110,120,130,130,120,70,40,30,60,90,110,120,120,120,120,120,110,110,110,100,100,90,85,60,45,10,10,25,60,80,95,90,90,95,90,90,85,85,90,85,80,75,75,75,85,85,85,85,85,80,80,85,90,100,100,95,90,90,95,100,125,85,70,65,60,65,60,65,70,75,75,70,70,70,70,70,65,65,65,60,60,75,75,70,65,70,85,85,75,65,65,70,55,60,60,45,40,60,40,40,45,20,10,10,30,45,50,35,25,40,55,65,50,45,60,45,40,35,50,50,45,40,40,35,35,25,35,15,20,28,5,5,5,15,10,5,10,10,5,5,5,0,0,0,0,0,0,0,0,0,0,0,0,0,0,0,0,0,0,0,0,0,0,0,0,0,0,0,0,0,0,0,0,0,0,0
0,0,0,0,0,0,0,0,0,0,0,0,0,0,0,0,0,0,0,0,0,0,0,0,0,0,0,0,0,0,0,0,0,0,0,0,0,0,0,0,0,0,0,0,0,0,0,0,0,0,0,0,0,0,0,0,0,0,0,0,0,0,0,0,0,0,0,0,0,0,0,0,0,0,0,0,0,0,0,0,0,0,0,0,0,0,0,0,0,0,0,0,0,0,0,0,0,0,0,0,0,0,0,0,0,0,0,0,0,0,0,0,0,0,0,0,0,1,4,5,6,7,8,7,7,7,7,4,1,0,0,0,0,0,1,1,1,1,2,3,3,1,1,2,1,14,15,20,20,20,25,25,25,25,25,25,25,30,35,35,40,45,50,55,60,60,65,65,75,75,75,75,75,80,85,85,80,75,70,70,70,85,90,90,90,90,85,95,115,120,130,135,140,145,140,140,145,150,150,150,155,185,205,205,190,185,185,190,175,180,185,195,175,185,190,190,170,145,140,170,175,180,180,165,150,140,130,130,140,130,120,140,140,130,120,120,120,130,120,120,130,130,140,140,130,130,140,135,120,120,110,100,80,70,60,50,60,60,60,60,60,50,50,40,40,50,120,130,130,130,120,120,160,180,200,200,190,160,140,120,110,100,100,110,120,100,110,100,90,100,110,120,110,130,150,130,120,140,160,120,100,150,160,150,140,100,70,80,110,100,100,80,80,70,60,50,50,50,50,49,46,42,40,40,37,35,28,28,31,29,31,29,14,8,5,1,1,1,0,0,0,0,0,0,0,0,0,0,0,0,0,0,0,0,0,0,0,0,0,5,50,70,120,120,110,80,70,50,30,20,40,70,100,120,120,120,120,110,100,100,100,100,90,90,90,70,55,35,50,45,75,85,95,90,95,95,90,90,90,85,90,80,75,75,75,85,85,85,85,85,85,85,80,85,90,100,100,95,90,90,95,100,105,125,75,60,60,60,65,60,65,70,75,75,70,70,70,70,70,65,65,60,60,70,70,60,55,60,80,85,80,70,70,70,65,65,65,55,60,50,35,20,35,35,5,5,30,35,40,40,30,30,55,60,55,60,60,45,35,35,45,45,40,45,40,40,35,38,41,20,25,20,10,5,5,5,5,5,5,5,5,0,0,0,0,0,0,0,0,0,0,0,0,0,0,0,0,0,0,0,0,0,0,0,0,0,0,0,0,0,0,0,0,0,0,0,0,0
0,0,0,0,0,0,0,0,0,0,0,0,0,0,0,0,0,0,0,0,0,0,0,0,0,0,0,0,0,0,0,0,0,0,0,0,0,0,0,0,0,0,0,0,0,0,0,0,0,0,0,0,0,0,0,0,0,0,0,0,0,0,0,0,0,0,0,0,0,0,0,0,0,0,0,0,0,0,0,0,0,0,0,0,0,0,0,0,0,0,0,0,0,0,0,0,0,0,0,0,0,0,0,0,0,0,0,0,0,0,0,0,0,0,0,0,0,1,4,5,6,7,8,8,9,8,9,7,5,1,1,0,0,0,0,0,1,2,7,5,2,1,1,1,1,14,20,22,22,25,25,30,30,30,30,25,25,30,30,35,40,45,50,55,55,60,60,60,60,75,80,80,75,80,85,85,85,75,70,70,75,80,90,90,90,90,85,95,105,105,135,135,135,140,140,140,145,155,150,150,175,185,195,205,195,185,175,185,175,180,185,190,180,180,190,170,150,145,165,170,170,180,170,160,145,130,130,130,140,120,120,140,140,130,120,120,130,130,120,120,140,140,140,140,140,140,140,135,130,130,110,100,90,80,70,60,60,60,60,60,60,50,50,50,50,60,120,130,140,140,130,130,140,180,200,210,200,170,150,120,110,100,110,120,120,110,100,90,90,100,110,110,110,140,160,140,120,130,150,120,120,160,160,150,130,100,90,120,130,120,100,90,80,70,60,50,50,50,53,50,49,46,42,40,38,36,30,30,31,29,30,29,15,11,8,8,4,1,0,0,0,0,0,0,0,0,0,0,0,0,0,0,0,0,0,0,0,0,0,5,10,110,120,110,80,60,50,30,15,15,30,60,90,100,100,110,100,90,90,90,90,90,90,90,90,70,60,55,55,60,80,85,95,90,90,95,90,90,90,85,85,80,75,75,80,85,85,85,85,85,85,90,85,85,100,105,100,90,85,85,90,100,105,125,100,60,65,70,65,65,65,70,70,75,70,65,70,70,70,70,65,65,65,70,65,60,60,50,85,85,80,75,60,70,70,65,65,65,65,50,35,25,10,30,10,5,35,40,45,50,45,45,55,55,55,60,60,50,40,45,45,50,45,50,45,40,40,40,35,35,25,15,15,23,10,5,5,5,5,5,0,0,0,0,0,0,0,0,0,0,0,0,0,0,0,0,0,0,0,0,0,0,0,0,0,0,0,0,0,0,0,0,0,0,0,0,0,0
0,0,0,0,0,0,0,0,0,0,0,0,0,0,0,0,0,0,0,0,0,0,0,0,0,0,0,0,0,0,0,0,0,0,0,0,0,0,0,0,0,0,0,0,0,0,0,0,0,0,0,0,0,0,0,0,0,0,0,0,0,0,0,0,0,0,0,0,0,0,0,0,0,0,0,0,0,0,0,0,0,0,0,0,0,0,0,0,0,0,0,0,0,0,0,0,0,0,0,0,0,0,0,0,0,0,0,0,0,0,0,0,0,0,0,0,0,1,2,5,6,7,8,8,9,10,11,10,7,6,4,3,1,0,0,0,0,1,8,8,4,7,7,7,4,1,16,23,25,25,30,30,30,30,30,30,25,30,30,35,35,40,45,50,55,55,55,55,60,60,80,85,80,80,85,85,80,75,75,70,75,75,80,90,90,75,85,95,90,100,140,130,135,140,140,140,145,150,150,155,165,185,185,200,200,185,180,180,180,180,185,180,175,185,175,160,145,145,160,170,180,175,170,150,140,130,130,130,130,120,120,140,150,120,120,130,130,130,120,125,130,130,130,150,150,145,145,140,140,135,120,110,100,80,70,70,70,60,60,60,60,60,60,60,50,60,120,130,150,140,130,130,150,190,210,210,180,170,160,120,110,100,110,120,110,100,90,90,90,110,120,110,110,120,150,150,130,130,140,130,130,140,150,100,110,100,130,140,130,130,110,100,90,70,60,50,50,50,50,53,51,47,45,43,40,34,33,33,30,30,29,24,13,12,11,7,6,4,0,0,0,0,0,0,0,0,0,0,0,0,0,0,0,0,0,0,0,0,0,0,10,100,100,100,70,60,40,15,5,15,20,40,80,90,100,90,90,80,90,90,90,90,90,90,80,70,65,55,60,65,80,90,95,90,90,95,90,90,90,90,85,80,75,75,75,85,85,85,85,85,90,90,90,90,100,100,95,90,85,75,70,85,100,105,120,50,40,70,70,65,65,65,70,75,75,70,70,70,65,65,65,70,65,70,70,65,65,70,85,85,80,75,60,70,70,70,65,70,50,30,40,35,35,10,15,10,45,55,50,40,50,50,50,45,55,60,55,50,45,45,50,55,50,50,45,45,40,35,35,25,20,25,20,15,10,5,10,10,10,5,5,0,0,0,0,0,0,0,0,0,0,0,0,0,0,0,0,0,0,0,0,0,0,0,0,0,0,0,0,0,0,0,0,0,0,0,0,0
0,0,0,0,0,0,0,0,0,0,0,0,0,0,0,0,0,0,0,0,0,0,0,0,0,0,0,0,0,0,0,0,0,0,0,0,0,0,0,0,0,0,0,0,0,0,0,0,0,0,0,0,0,0,0,0,0,0,0,0,0,0,0,0,0,0,0,0,0,0,0,0,0,0,0,0,0,0,0,0,0,0,0,0,0,0,0,0,0,0,0,0,0,0,0,0,0,0,0,0,0,0,0,0,0,0,0,0,0,0,0,0,0,0,0,0,0,2,4,5,4,7,8,8,9,10,12,11,9,9,9,9,6,5,1,0,0,1,6,9,11,11,11,11,10,18,20,24,26,30,30,30,30,35,35,30,30,30,30,30,35,35,40,45,50,50,50,50,50,60,65,75,80,80,80,60,45,75,80,75,75,75,80,90,85,70,75,90,90,110,120,120,125,140,140,140,145,145,145,150,165,175,180,190,200,190,185,175,180,180,175,175,170,175,170,160,145,150,155,165,175,175,165,150,145,140,130,130,130,130,130,140,140,130,130,130,130,125,120,125,120,125,135,150,145,145,150,145,150,135,120,110,100,90,80,80,70,70,60,60,60,60,70,60,60,110,130,150,150,130,130,140,160,200,210,210,190,170,150,110,100,100,100,80,80,100,100,90,90,100,110,110,110,120,120,150,140,130,130,130,140,160,130,110,120,150,150,140,140,130,120,100,90,80,60,60,60,50,50,50,51,49,47,44,40,31,36,34,32,30,31,20,20,14,11,16,9,2,1,0,0,0,0,0,0,0,0,0,0,0,0,0,0,0,0,0,0,0,0,5,40,110,120,120,60,50,30,10,5,20,30,40,70,80,90,80,80,80,80,90,90,90,90,90,80,70,65,55,60,70,80,90,90,90,95,95,90,90,95,90,85,80,75,75,75,80,85,85,85,85,90,90,90,100,105,95,90,85,75,70,65,65,80,95,110,100,55,65,70,65,65,65,65,70,75,70,70,70,70,65,70,70,70,70,70,70,70,75,85,85,85,70,60,50,50,40,70,55,55,55,50,45,45,25,25,10,50,55,55,55,55,55,50,50,60,55,60,55,45,45,50,55,55,45,40,45,35,30,30,25,20,20,15,10,15,20,20,15,10,5,5,0,0,0,0,0,0,0,0,0,0,0,0,0,0,0,0,0,0,0,0,0,0,0,0,0,0,0,0,0,0,0,0,0,0,0,0,0
0,0,0,0,0,0,0,0,0,0,0,0,0,0,0,0,0,0,0,0,0,0,0,0,0,0,0,0,0,0,0,0,0,0,0,0,0,0,0,0,0,0,0,0,0,0,0,0,0,0,0,0,0,0,0,0,0,0,0,0,0,0,0,0,0,0,0,0,0,0,0,0,0,0,0,0,0,0,0,0,0,0,0,0,0,0,0,0,0,0,0,0,0,0,0,0,0,0,0,0,0,0,0,0,0,0,0,0,0,0,0,0,0,0,0,0,0,2,4,5,6,8,8,9,9,9,11,12,10,11,11,11,10,11,9,8,3,2,3,10,13,14,15,18,19,20,22,26,28,30,30,30,35,35,35,35,35,30,30,30,35,35,35,40,40,45,45,45,50,55,65,70,75,80,80,55,45,55,70,80,80,80,80,90,85,80,85,85,85,105,110,115,120,105,120,145,150,145,145,145,160,170,175,190,195,185,180,175,180,175,175,170,170,160,165,160,150,150,145,165,175,180,165,155,155,155,140,130,145,140,140,140,140,130,130,125,120,120,125,120,120,125,130,150,135,135,150,140,140,130,120,110,100,90,90,90,80,70,70,60,60,60,70,70,60,100,130,140,130,130,130,140,180,200,210,200,180,160,140,100,80,60,90,90,80,80,90,90,90,90,100,110,110,110,120,130,150,140,140,140,150,170,170,140,160,160,150,150,140,130,110,100,90,70,60,60,60,50,50,50,50,50,49,45,35,36,38,35,32,31,29,16,8,14,12,16,9,7,1,0,0,0,0,0,0,0,0,0,0,0,0,0,0,0,0,0,0,0,5,15,50,80,120,110,60,40,15,10,20,30,40,50,70,50,60,70,70,80,80,90,90,90,90,80,70,70,65,60,65,75,85,95,100,100,95,95,95,90,95,90,85,80,80,75,75,80,80,85,90,90,95,90,90,125,100,95,90,80,75,70,65,65,65,80,95,105,65,65,65,65,65,65,65,65,70,75,70,70,70,65,70,70,70,75,75,70,70,75,90,90,80,40,40,35,40,55,60,60,60,60,55,55,55,50,20,10,55,60,60,60,60,60,60,65,60,60,60,55,50,50,55,55,55,45,40,35,40,25,30,30,20,20,15,10,23,20,15,15,10,10,5,5,0,0,0,0,0,0,0,0,0,0,0,0,0,0,0,0,0,0,0,0,0,0,0,0,0,0,0,0,0,0,0,0,0,0,0,0
0,0,0,0,0,0,0,0,0,0,0,0,0,0,0,0,0,0,0,0,0,0,0,0,0,0,0,0,0,0,0,0,0,0,0,0,0,0,0,0,0,0,0,0,0,0,0,0,0,0,0,0,0,0,0,0,0,0,0,0,0,0,0,0,0,0,0,0,0,0,0,0,0,0,0,0,0,0,0,0,0,0,0,0,0,0,0,0,0,0,0,0,0,0,0,0,0,0,0,0,0,0,0,0,0,0,0,0,0,0,0,0,0,0,0,0,0,2,3,5,6,8,9,9,10,10,11,14,12,12,12,13,13,12,12,10,8,5,4,6,15,17,19,19,18,17,24,27,30,30,30,35,35,40,40,40,40,40,40,35,40,40,45,45,35,35,40,45,45,50,60,65,70,75,75,75,60,50,55,65,85,85,85,90,90,90,95,95,100,105,100,90,95,105,115,140,155,155,150,145,155,165,165,185,190,185,180,170,170,175,175,165,160,155,160,155,150,145,160,165,175,180,160,145,150,150,155,145,145,145,140,140,130,135,125,110,105,110,125,125,120,125,140,150,130,125,150,145,135,125,120,100,95,95,100,90,80,70,70,70,60,70,70,80,80,100,110,130,130,130,120,80,130,210,210,190,180,170,140,80,60,40,60,80,80,80,90,90,90,90,100,100,110,120,120,130,140,140,150,150,160,170,160,150,150,150,150,140,140,120,110,100,80,70,60,60,50,50,50,50,50,50,50,48,40,40,38,36,33,29,24,15,15,16,13,16,12,9,5,1,0,0,0,0,0,0,0,0,0,0,0,0,0,0,0,0,0,0,0,5,40,60,110,100,40,30,15,15,30,40,50,60,50,40,60,70,70,80,90,90,90,90,80,80,70,65,65,65,70,80,95,100,100,90,90,95,95,90,95,90,85,85,80,75,75,75,75,85,90,90,95,90,90,110,100,95,85,80,75,70,65,60,65,75,85,100,100,65,65,65,65,65,65,65,70,75,70,70,70,70,70,70,70,70,75,75,80,80,90,90,70,65,60,40,65,55,65,60,65,60,60,60,55,50,45,55,65,65,65,65,65,55,70,65,65,60,55,60,55,55,50,55,60,45,40,40,40,25,25,25,20,20,15,15,5,15,10,15,10,10,15,5,5,5,0,0,0,0,0,0,0,0,0,0,0,0,0,0,0,0,0,0,0,0,0,0,0,0,0,0,0,0,0,0,0,0,0,0
0,0,0,0,0,0,0,0,0,0,0,0,0,0,0,0,0,0,0,0,0,0,0,0,0,0,0,0,0,0,0,0,0,0,0,0,0,0,0,0,0,0,0,0,0,0,0,0,0,0,0,0,0,0,0,0,0,0,0,0,0,0,0,0,0,0,0,0,0,0,0,0,0,0,0,0,0,0,0,0,0,0,0,0,0,0,0,0,0,0,0,0,0,0,0,0,0,0,0,0,0,0,0,0,0,0,0,0,0,0,0,0,0,0,0,0,0,0,1,5,5,8,9,9,10,11,12,13,12,12,13,14,14,14,15,14,11,7,7,6,17,19,20,20,20,21,24,29,31,30,35,35,40,40,40,40,40,40,45,45,45,40,45,45,35,35,35,40,45,45,50,65,65,60,75,80,75,65,65,80,80,75,85,85,90,95,90,100,100,100,85,85,90,105,110,130,150,150,150,145,155,165,165,180,190,180,175,165,160,175,165,160,150,145,155,155,155,160,165,165,170,165,160,140,150,150,155,150,145,145,140,130,130,135,130,120,105,115,120,120,120,125,135,150,145,120,135,140,135,125,110,100,95,100,100,100,80,70,80,70,80,90,80,80,80,70,70,70,60,70,90,80,200,220,200,190,180,170,160,80,50,40,50,70,80,70,80,90,100,100,100,100,110,130,120,130,140,150,160,170,170,160,150,140,130,130,130,120,110,110,110,110,80,70,80,70,60,60,60,50,50,50,51,49,44,42,40,38,28,25,24,25,25,25,20,19,13,8,6,2,0,0,0,0,0,0,0,0,0,0,0,0,0,0,0,0,0,0,0,5,30,70,90,70,20,5,15,15,15,50,50,50,40,40,60,60,80,80,90,90,80,80,80,70,70,65,65,70,80,85,95,90,90,90,90,95,95,90,90,90,85,85,80,80,75,75,75,80,90,90,95,95,100,110,95,90,85,75,75,70,65,60,65,70,80,90,100,90,70,70,70,65,65,65,65,70,70,70,70,70,70,70,70,70,70,75,80,80,85,85,85,75,60,70,65,65,65,65,65,65,65,60,60,55,55,65,60,60,60,60,55,55,55,60,60,55,65,70,70,60,55,50,55,45,40,40,40,25,25,25,20,15,15,15,10,5,10,10,15,20,15,5,10,10,5,5,0,0,0,0,0,0,0,0,0,0,0,0,0,0,0,0,0,0,0,0,0,0,0,0,0,0,0,0,0,0,0,0
0,0,0,0,0,0,0,0,0,0,0,0,0,0,0,0,0,0,0,0,0,0,0,0,0,0,0,0,0,0,0,0,0,0,0,0,0,0,0,0,0,0,0,0,0,0,0,0,0,0,0,0,0,0,0,0,0,0,0,0,0,0,0,0,0,0,0,0,0,0,0,0,0,0,0,0,0,0,0,0,0,0,0,0,0,0,0,0,0,0,0,0,0,0,0,0,0,0,0,0,0,0,0,0,0,0,0,0,0,0,0,0,0,0,0,0,1,1,1,6,4,6,8,9,10,11,12,13,12,13,13,14,15,16,16,16,14,10,8,8,16,20,21,22,23,24,28,30,32,30,35,35,40,40,45,45,45,45,45,50,50,50,50,50,50,40,35,35,40,45,50,60,65,60,55,70,75,75,80,75,60,60,60,65,85,90,85,85,100,95,100,90,95,105,110,110,145,150,145,145,150,160,170,180,185,180,170,165,165,170,165,155,150,150,160,155,160,160,165,160,165,165,160,150,150,155,150,150,150,145,140,130,130,135,130,120,105,115,120,120,120,120,130,150,145,130,135,135,135,130,100,95,95,100,100,100,90,80,80,80,100,100,90,80,70,60,60,60,50,70,80,110,190,220,190,190,180,170,150,100,60,40,40,70,80,70,70,90,100,110,100,100,120,130,140,130,150,160,170,160,150,150,130,130,120,120,120,110,100,100,110,100,90,90,80,70,60,60,60,60,60,50,50,50,48,43,42,37,29,27,27,29,27,25,23,20,11,8,6,2,0,0,0,0,0,0,0,0,0,0,0,0,0,0,0,0,0,0,0,0,10,40,70,40,5,0,5,5,30,50,50,50,50,60,80,80,80,80,80,80,80,70,70,70,70,70,70,70,80,90,95,100,100,90,90,95,95,95,95,95,90,90,85,80,80,75,75,80,90,85,85,100,110,100,95,90,80,75,75,70,65,60,65,70,75,80,85,95,85,75,70,60,60,65,70,70,60,70,70,70,70,70,75,75,75,65,70,80,85,85,80,75,75,70,70,70,70,65,65,65,65,65,60,60,60,60,60,60,55,55,55,55,55,55,55,50,55,70,70,55,55,50,55,55,40,40,40,25,25,35,25,20,20,10,5,10,10,10,15,23,25,10,5,5,5,5,0,0,0,5,5,0,0,0,0,0,0,0,0,0,0,0,0,0,0,0,0,0,0,0,0,0,0,0,0,0,0,0
0,0,0,0,0,0,0,0,0,0,0,0,0,0,0,0,0,0,0,0,0,0,0,0,0,0,0,0,0,0,0,0,0,0,0,0,0,0,0,0,0,0,0,0,0,0,0,0,0,0,0,0,0,0,0,0,0,0,0,0,0,0,0,0,0,0,0,0,0,0,0,0,0,0,0,0,0,0,0,0,0,0,0,0,0,0,0,0,0,0,0,0,0,0,0,0,0,0,0,0,0,0,0,0,0,0,0,0,0,0,0,0,0,0,0,0,1,2,3,4,4,3,7,9,10,11,12,12,13,14,14,15,16,17,17,18,17,15,12,14,16,20,23,24,26,28,29,30,32,30,35,40,40,40,45,45,45,45,50,50,50,50,50,50,50,50,45,35,40,40,45,55,60,55,50,60,70,70,65,70,60,60,50,60,75,65,55,55,80,85,100,100,100,95,105,110,125,145,145,140,150,155,165,170,180,175,170,165,160,160,155,150,150,150,160,155,155,160,160,160,155,155,155,160,150,150,150,150,150,145,140,140,135,135,130,120,115,110,120,120,120,120,130,135,135,130,130,135,130,125,120,100,100,105,105,100,100,90,90,100,100,90,80,80,60,70,70,60,60,80,130,180,180,170,150,170,190,170,160,130,100,50,50,70,70,70,70,80,100,110,110,110,120,140,150,130,160,180,150,140,140,140,130,120,120,110,120,110,100,100,110,120,100,90,80,70,70,70,60,60,60,50,50,50,49,45,45,42,31,30,27,30,27,23,20,12,12,5,5,6,1,0,0,1,1,0,0,0,1,0,0,0,0,0,0,0,0,0,0,0,5,10,25,5,0,0,0,5,30,50,50,50,50,60,80,80,80,80,80,70,40,60,70,70,70,70,70,70,85,95,100,100,100,90,90,90,90,95,95,95,90,85,85,80,80,80,75,80,85,85,95,105,110,100,95,85,80,75,70,70,65,60,60,65,70,75,80,85,90,85,70,50,40,65,70,70,55,55,65,70,70,75,85,80,75,70,60,70,85,85,80,75,75,75,75,75,65,65,65,65,65,65,65,65,60,60,60,55,55,55,60,55,55,55,50,55,55,65,65,60,50,55,55,50,45,40,40,35,30,35,30,20,10,15,15,15,15,5,10,10,25,10,5,10,10,5,0,5,5,5,0,0,0,0,0,0,0,0,0,0,0,0,0,0,0,0,0,0,0,0,0,0,0,0,0,0,0,0
0,0,0,0,0,0,0,0,0,0,0,0,0,0,0,0,0,0,0,0,0,0,0,0,0,0,0,0,0,0,0,0,0,0,0,0,0,0,0,0,0,0,0,0,0,0,0,0,0,0,0,0,0,0,0,0,0,0,0,0,0,0,0,0,0,0,0,0,0,0,0,0,0,0,0,0,0,0,0,0,0,0,0,0,0,0,0,0,0,0,0,0,0,0,0,0,0,0,0,0,0,0,0,0,0,0,0,0,0,0,0,0,0,0,0,0,0,2,3,2,1,2,6,5,10,11,12,13,13,14,15,16,17,18,19,19,19,18,16,15,18,22,25,26,28,29,30,31,30,30,35,40,40,45,45,45,45,45,50,50,50,50,50,50,50,50,50,50,40,40,45,50,55,50,50,55,60,65,50,60,60,55,50,55,65,60,55,45,40,65,85,100,100,100,100,100,105,125,140,140,150,155,160,170,175,170,165,160,160,155,145,145,145,155,155,155,155,155,155,155,155,155,165,160,150,150,150,150,150,145,140,140,135,130,125,120,115,110,115,115,115,120,125,125,125,125,125,125,125,125,120,100,100,110,105,100,100,100,100,110,110,90,80,70,70,80,100,100,110,130,160,180,180,130,130,180,190,170,150,120,100,50,40,70,70,70,70,80,100,70,100,110,130,140,160,160,170,160,140,130,130,130,120,120,110,110,110,110,100,100,110,110,80,80,70,70,70,70,70,60,60,50,50,50,47,46,46,44,40,31,29,27,27,23,22,13,8,5,3,6,2,1,0,1,1,0,1,2,1,0,0,0,0,0,0,0,0,0,0,0,0,5,10,0,0,0,0,5,40,60,60,50,50,60,70,70,80,80,70,40,20,40,60,60,60,70,70,70,80,90,95,100,100,90,90,90,90,95,95,95,90,85,85,80,80,80,80,85,90,85,95,110,110,100,95,85,80,75,70,65,65,65,60,65,60,65,70,80,90,95,60,50,45,50,70,70,60,55,55,65,70,80,85,85,85,80,80,80,90,85,80,75,75,75,80,75,70,70,65,65,65,65,60,60,60,60,60,60,60,60,60,55,55,55,55,55,65,65,65,55,50,50,50,50,45,40,40,40,35,35,35,20,15,15,20,15,10,10,5,5,10,25,5,10,10,5,5,10,5,5,0,0,0,0,0,0,0,0,0,0,0,0,0,0,0,0,0,0,0,0,0,0,0,0,0,0,0,0
0,0,0,0,0,0,0,0,0,0,0,0,0,0,0,0,0,0,0,0,0,0,0,0,0,0,0,0,0,0,0,0,0,0,0,0,0,0,0,0,0,0,0,0,0,0,0,0,0,0,0,0,0,0,0,0,0,0,0,0,0,0,0,0,0,0,0,0,0,0,0,0,0,0,0,0,0,0,0,0,0,0,0,0,0,0,0,0,0,0,0,0,0,0,0,0,0,0,0,0,0,0,0,0,0,0,0,0,0,0,0,0,0,0,0,0,0,3,4,3,2,5,6,6,6,11,12,13,14,15,14,14,17,19,19,20,20,20,19,19,18,25,26,27,29,30,30,31,32,30,30,35,40,45,45,45,45,50,50,50,50,50,55,55,55,55,55,55,50,45,45,50,50,45,45,45,50,55,50,50,60,50,55,50,55,55,50,45,40,55,55,85,100,105,105,100,105,115,120,130,140,150,160,165,170,165,165,160,155,150,145,145,150,155,155,155,155,155,150,155,155,165,165,150,145,145,150,150,150,145,140,135,130,125,125,120,120,115,110,105,110,115,120,120,120,120,115,115,110,115,120,115,110,110,110,105,100,110,110,110,110,90,80,80,90,130,120,130,130,130,170,180,110,70,100,180,190,170,120,120,80,30,30,60,70,70,70,80,60,50,90,110,130,150,170,170,170,160,140,140,140,130,120,120,110,110,110,100,100,110,130,80,70,70,80,80,70,70,70,60,60,50,50,50,50,50,46,45,41,28,29,29,28,24,23,11,9,6,3,7,3,1,0,1,1,1,3,3,1,0,0,0,0,0,0,0,0,0,0,0,0,0,0,0,0,0,5,40,60,60,60,50,50,50,70,70,80,80,40,20,5,40,60,60,60,60,60,60,60,70,80,100,90,90,90,90,100,100,90,95,90,80,85,80,80,80,85,90,90,95,100,110,100,95,95,80,70,60,65,65,65,65,60,65,60,60,60,75,85,95,90,65,50,45,65,70,60,55,55,60,65,70,80,85,90,90,85,85,85,90,85,80,75,80,80,75,70,70,70,70,65,65,60,60,60,65,65,65,65,65,60,60,55,55,55,55,60,65,60,60,50,50,55,50,45,40,40,40,35,40,35,20,25,20,10,25,5,10,5,5,10,10,10,10,5,5,5,5,5,5,0,0,0,0,0,0,0,0,0,0,0,0,0,0,0,0,0,0,0,0,0,0,0,0,0,0,0,0
0,0,0,0,0,0,0,0,0,0,0,0,0,0,0,0,0,0,0,0,0,0,0,0,0,0,0,0,0,0,0,0,0,0,0,0,0,0,0,0,0,0,0,0,0,0,0,0,0,0,0,0,0,0,0,0,0,0,0,0,0,0,0,0,0,0,0,0,0,0,0,0,0,0,0,0,0,0,0,0,0,0,0,0,0,0,0,0,0,0,0,0,0,0,0,0,0,0,0,0,0,0,0,0,0,0,0,0,0,0,0,0,0,0,0,0,0,2,4,5,5,7,6,6,5,10,12,13,14,14,15,15,17,18,19,20,21,22,22,22,25,26,27,29,30,31,31,32,32,30,30,35,40,40,45,45,50,50,50,50,50,50,55,55,55,55,55,55,55,55,50,50,50,45,40,40,45,45,50,55,55,50,55,45,45,40,45,50,45,50,50,55,85,105,105,105,105,110,115,120,135,145,155,165,165,160,160,155,150,150,150,150,150,155,155,155,155,150,150,160,155,165,165,155,145,140,150,150,150,145,135,130,125,125,125,125,120,120,105,100,110,115,115,115,110,105,105,105,110,115,120,120,115,110,110,110,110,110,120,130,110,80,80,100,130,130,130,130,120,130,160,130,70,70,170,190,190,150,90,90,50,40,30,40,60,60,50,40,40,60,90,110,140,170,180,170,170,160,150,140,140,130,120,110,100,110,110,100,100,100,120,100,80,90,90,80,70,60,60,60,60,50,50,50,50,50,46,46,44,38,33,30,27,27,25,10,7,5,2,10,4,1,1,1,4,4,5,4,1,0,0,0,0,0,0,0,0,0,0,0,0,0,0,0,0,5,30,50,60,60,50,50,40,40,50,60,70,70,30,5,0,5,50,60,60,60,30,10,30,30,20,20,60,80,90,90,100,100,90,90,90,80,85,80,80,80,85,90,90,95,110,110,100,95,95,75,60,55,55,65,65,65,65,65,60,60,60,75,80,90,90,80,55,50,65,65,65,60,55,55,60,65,75,85,90,90,90,90,85,85,85,85,85,80,80,75,70,70,70,70,65,65,65,60,60,65,65,70,65,70,65,50,35,55,55,55,60,60,60,55,55,50,55,50,50,45,40,40,40,35,25,25,25,20,10,20,20,10,5,5,10,15,20,15,15,5,5,5,5,0,0,0,0,0,0,0,0,0,0,0,0,0,0,0,0,0,0,0,0,0,0,0,0,0,0,0,0,0
0,0,0,0,0,0,0,0,0,0,0,0,0,0,0,0,0,0,0,0,0,0,0,0,0,0,0,0,0,0,0,0,0,0,0,0,0,0,0,0,0,0,0,0,0,0,0,0,0,0,0,0,0,0,0,0,0,0,0,0,0,0,0,0,0,0,0,0,0,0,0,0,0,0,0,0,0,0,0,0,0,0,0,0,0,0,0,0,0,0,0,0,0,0,0,0,0,0,0,0,0,0,0,0,0,0,0,0,0,0,0,0,0,0,0,0,0,3,4,5,6,6,7,7,5,10,10,12,14,15,15,16,17,17,18,20,22,23,24,25,26,27,28,30,31,32,33,33,33,30,30,35,40,40,45,50,50,50,50,50,50,55,55,55,55,55,55,60,60,60,55,55,55,50,35,35,40,45,45,55,55,50,55,50,50,45,40,40,40,45,45,50,75,90,105,105,105,90,100,110,125,140,150,160,160,160,155,150,150,145,150,150,150,155,155,155,155,160,155,160,165,165,160,145,155,140,140,150,150,145,130,130,125,125,125,125,120,120,115,105,110,110,110,110,105,105,105,100,110,120,120,120,115,110,115,120,120,110,120,120,110,100,120,130,130,130,130,120,120,130,140,110,70,80,160,160,190,130,60,60,50,40,40,40,40,40,40,40,40,70,100,120,140,180,190,180,180,160,150,140,130,120,110,100,100,110,110,100,100,110,110,110,100,90,90,70,70,70,70,60,60,50,50,50,50,50,50,47,43,41,37,32,29,27,19,11,9,9,5,6,9,1,5,10,9,4,6,1,1,0,0,0,0,0,0,0,0,0,0,0,0,0,0,0,0,15,40,50,50,50,40,40,30,30,30,30,30,40,40,20,5,10,40,50,50,20,10,5,10,15,5,5,30,50,70,90,90,90,90,90,90,80,80,80,80,80,85,90,95,100,110,110,110,95,90,70,60,60,55,65,65,60,65,65,60,55,55,75,80,85,90,95,85,55,65,65,65,60,55,50,55,60,65,75,85,90,90,90,90,85,85,90,85,85,80,75,65,70,70,70,65,65,60,60,60,65,70,70,70,65,45,40,35,55,60,60,60,60,60,55,55,55,55,50,50,50,40,35,40,40,30,25,25,20,10,15,25,15,15,10,20,15,10,25,15,10,10,5,5,0,0,0,0,0,0,0,0,0,0,0,0,0,0,0,0,0,0,0,0,0,0,0,0,0,0,0,0,0
0,0,0,0,0,0,0,0,0,0,0,0,0,0,0,0,0,0,0,0,0,0,0,0,0,0,0,0,0,0,0,0,0,0,0,0,0,0,0,0,0,0,0,0,0,0,0,0,0,0,0,0,0,0,0,0,0,0,0,0,0,0,0,0,0,0,0,0,0,0,0,0,0,0,0,0,0,0,0,0,0,0,0,0,0,0,0,0,0,0,0,0,0,0,0,0,0,0,0,0,0,0,0,0,0,0,0,0,0,0,0,0,0,0,0,0,0,3,4,6,6,6,8,8,9,10,10,11,13,15,15,16,15,16,17,17,21,24,25,26,27,29,30,31,31,33,34,34,33,30,30,35,40,40,45,50,50,50,50,50,55,55,55,55,55,60,60,60,60,60,60,60,60,55,40,35,35,40,50,55,55,55,55,50,50,45,40,35,35,40,45,50,60,75,100,100,90,85,100,100,120,135,145,155,155,155,150,150,145,145,145,150,150,155,150,155,155,155,155,155,160,160,155,150,155,140,145,150,150,135,130,130,125,125,125,125,120,120,120,115,110,110,110,110,110,105,105,110,115,120,120,115,110,110,115,130,120,110,120,120,120,120,130,130,130,130,120,130,120,120,120,100,80,100,180,190,170,100,60,50,50,50,50,40,40,40,40,40,40,60,110,130,160,190,190,180,170,160,150,140,120,110,100,100,110,110,110,110,110,110,110,110,100,100,90,70,70,70,70,60,60,50,50,50,50,50,50,50,45,42,36,34,30,26,24,20,17,14,5,9,8,8,5,7,9,5,2,2,2,2,0,0,0,0,0,0,0,0,0,0,0,0,0,0,0,5,10,40,30,40,10,15,20,15,20,15,10,20,40,30,20,30,40,40,20,5,0,0,5,5,5,5,5,20,50,70,90,80,90,90,90,80,80,80,80,80,80,85,95,110,110,110,110,100,85,65,60,60,65,65,65,60,60,65,60,55,55,70,85,90,95,95,90,80,70,70,65,60,55,50,45,50,60,65,70,80,90,90,90,90,90,95,95,85,80,80,75,70,75,75,70,65,60,60,60,65,70,70,65,55,50,45,40,55,60,60,60,55,55,55,55,55,50,45,50,50,40,35,35,40,30,25,20,5,5,25,15,25,15,10,10,10,10,10,15,20,5,10,5,0,0,0,0,5,5,0,0,0,0,0,0,0,0,0,0,0,0,0,0,0,0,0,0,0,0,0,0,0
0,0,0,0,0,0,0,0,0,0,0,0,0,0,0,0,0,0,0,0,0,0,0,0,0,0,0,0,0,0,0,0,0,0,0,0,0,0,0,0,0,0,0,0,0,0,0,0,0,0,0,0,0,0,0,0,0,0,0,0,0,0,0,0,0,0,0,0,0,0,0,0,0,0,0,0,0,0,0,0,0,0,0,0,0,0,0,0,0,0,0,0,0,0,0,0,0,0,0,0,0,0,0,0,0,0,0,0,0,0,0,0,0,0,0,0,0,3,4,5,6,6,6,7,7,9,10,11,13,14,15,15,15,16,17,17,20,22,25,27,29,30,31,32,32,33,34,35,35,35,35,35,40,40,45,50,50,50,50,55,55,55,55,55,60,60,60,60,60,60,60,60,60,60,60,50,40,40,45,55,55,55,55,50,50,45,40,40,35,35,40,50,55,75,100,95,75,80,95,95,105,130,140,150,150,150,150,145,145,140,145,150,150,150,150,155,155,150,155,155,160,160,160,150,155,145,145,150,150,135,130,130,130,130,125,125,125,120,120,120,115,115,115,110,110,110,115,120,120,115,115,110,110,115,115,120,120,120,120,130,140,140,130,130,130,120,120,130,120,110,100,100,90,130,190,180,160,100,50,50,50,60,60,50,40,30,40,40,60,100,130,150,180,190,180,170,170,170,150,130,120,110,100,100,110,110,100,110,110,110,100,100,100,100,90,70,70,70,70,60,60,60,60,50,50,50,50,50,45,42,37,35,30,29,26,26,26,5,5,8,7,7,9,1,4,3,3,2,3,1,0,0,0,0,0,0,0,0,0,0,0,0,0,0,0,0,5,5,5,5,5,5,5,5,5,0,5,20,30,30,30,20,20,15,5,0,0,0,0,0,0,0,0,5,20,60,90,80,90,90,90,80,80,80,80,80,80,85,95,115,110,110,110,100,85,70,60,60,60,65,65,60,60,65,60,55,60,65,80,85,95,100,95,85,90,80,70,60,55,45,45,45,55,60,65,65,75,75,85,90,95,95,95,95,90,90,80,75,80,75,70,70,65,60,60,65,70,70,65,50,50,50,55,60,60,60,60,55,55,60,60,50,45,50,50,50,50,40,45,35,35,20,5,5,20,30,35,25,15,15,10,10,15,10,10,15,25,15,5,5,5,0,0,5,5,5,0,0,0,0,0,0,0,0,0,0,0,0,0,0,0,0,0,0,0,0,0,0
0,0,0,0,0,0,0,0,0,0,0,0,0,0,0,0,0,0,0,0,0,0,0,0,0,0,0,0,0,0,0,0,0,0,0,0,0,0,0,0,0,0,0,0,0,0,0,0,0,0,0,0,0,0,0,0,0,0,0,0,0,0,0,0,0,0,0,0,0,0,0,0,0,0,0,0,0,0,0,0,0,0,0,0,0,0,0,0,0,0,0,0,0,0,0,0,0,0,0,0,0,0,0,0,0,0,0,0,0,0,0,0,0,0,0,0,0,2,4,5,6,6,6,6,6,8,9,10,12,12,14,14,14,16,17,19,21,23,25,26,30,32,32,33,32,33,34,36,37,35,35,35,40,45,45,50,50,50,55,55,55,55,55,55,60,60,60,60,60,60,60,60,60,60,60,60,55,55,50,50,60,60,55,50,50,45,40,40,40,35,45,50,65,80,90,90,80,85,90,95,105,125,135,145,145,155,145,145,140,140,145,150,150,150,150,155,150,155,155,155,160,160,155,150,155,150,150,150,145,135,135,130,130,130,130,130,125,125,125,120,115,115,120,115,110,115,105,120,115,110,110,110,110,115,120,120,130,130,140,150,150,130,130,120,120,120,130,130,110,100,100,100,120,160,190,170,140,90,50,60,70,80,90,60,30,30,40,50,90,130,150,170,180,180,170,170,170,160,130,120,110,110,110,110,120,110,100,110,110,110,110,110,100,100,90,80,70,70,60,60,60,60,60,50,50,50,50,50,45,41,37,34,31,30,27,24,26,9,7,11,11,9,2,0,0,1,1,4,5,1,0,0,0,0,0,0,0,0,0,0,0,0,0,0,0,0,0,0,0,0,0,0,0,0,0,0,0,20,30,40,40,20,15,10,0,0,0,0,0,0,0,0,0,0,30,40,90,90,90,90,90,80,80,80,80,80,80,90,100,120,115,115,110,90,75,70,65,60,60,65,65,60,60,60,60,55,60,65,70,80,95,100,95,100,100,90,75,60,55,50,45,40,45,55,65,70,70,70,80,85,85,90,90,95,95,95,85,80,80,75,75,70,65,65,65,70,70,70,65,55,55,55,60,60,60,60,60,55,55,60,60,55,60,55,50,50,50,45,45,40,25,10,5,5,20,30,30,30,25,25,10,25,15,10,15,15,20,5,5,5,10,0,0,5,5,25,10,5,5,0,0,0,0,0,0,0,0,0,0,0,0,0,0,0,0,0,0,0
0,0,0,0,0,0,0,0,0,0,0,0,0,0,0,0,0,0,0,0,0,0,0,0,0,0,0,0,0,0,0,0,0,0,0,0,0,0,0,0,0,0,0,0,0,0,0,0,0,0,0,0,0,0,0,0,0,0,0,0,0,0,0,0,0,0,0,0,0,0,0,0,0,0,0,0,0,0,0,0,0,0,0,0,0,0,0,0,0,0,0,0,0,0,0,0,0,0,0,0,0,0,0,0,0,0,0,0,0,0,0,0,0,0,0,0,0,0,3,4,5,5,5,5,6,7,9,10,11,11,11,13,14,16,17,19,24,24,25,28,32,33,34,35,34,34,36,38,38,40,40,40,40,45,45,50,50,55,55,55,55,55,55,60,60,60,60,60,60,60,60,60,60,60,65,60,60,60,55,55,55,55,55,55,55,45,40,40,40,35,50,60,70,75,85,85,80,85,85,90,100,120,130,135,140,155,120,130,140,140,145,150,155,150,150,150,150,150,155,160,160,155,155,155,160,160,150,150,145,135,135,130,130,130,130,130,130,125,125,125,120,115,120,125,110,110,105,120,120,110,110,110,115,115,120,130,140,140,160,150,140,130,130,120,120,120,130,120,110,100,110,130,150,170,180,160,100,70,60,90,110,110,140,110,60,40,40,90,120,140,160,180,180,170,170,170,170,150,130,120,120,120,110,110,120,110,110,110,110,110,110,110,100,100,110,100,80,70,70,60,60,60,60,50,50,50,50,50,45,45,37,36,33,30,29,25,27,19,15,8,9,5,4,3,0,1,3,3,3,1,0,0,0,0,0,0,0,0,0,0,0,0,0,0,0,0,0,0,0,0,0,0,0,0,0,0,0,10,40,40,40,20,5,5,0,0,0,0,0,0,0,0,0,5,30,80,90,90,90,90,90,80,80,80,80,80,90,100,110,120,120,120,110,85,70,65,65,65,60,60,65,65,60,60,55,55,55,60,65,70,80,75,90,100,105,110,95,80,65,55,50,45,45,50,60,65,60,70,70,80,85,90,90,85,90,100,90,85,80,75,70,70,65,65,65,70,70,65,65,55,60,60,60,60,60,60,60,60,60,65,60,55,55,60,50,45,50,50,55,45,30,5,10,5,25,30,30,35,30,30,20,15,10,10,10,10,15,15,5,5,5,0,0,5,5,5,20,25,5,0,0,0,0,0,0,0,0,0,0,0,0,0,0,0,0,0,0,0
0,0,0,0,0,0,0,0,0,0,0,0,0,0,0,0,0,0,0,0,0,0,0,0,0,0,0,0,0,0,0,0,0,0,0,0,0,0,0,0,0,0,0,0,0,0,0,0,0,0,0,0,0,0,0,0,0,0,0,0,0,0,0,0,0,0,0,0,0,0,0,0,0,0,0,0,0,0,0,0,0,0,0,0,0,0,0,0,0,0,0,0,0,0,0,0,0,0,0,0,0,0,0,0,0,0,0,0,0,0,0,0,0,0,0,0,0,0,2,4,4,4,4,5,6,7,8,9,10,11,12,13,15,15,17,21,24,26,27,28,32,34,35,36,37,37,37,38,40,40,40,45,45,45,45,50,50,55,55,55,55,55,60,60,60,60,60,60,60,65,65,60,60,65,65,65,65,60,60,55,55,55,55,55,55,45,40,40,40,45,55,60,65,70,75,80,80,80,85,90,105,115,120,130,125,115,110,120,130,140,145,145,155,150,155,150,150,150,155,155,155,150,150,150,160,155,155,150,145,135,135,130,130,130,130,130,130,125,125,125,120,110,110,110,105,105,105,110,120,115,110,110,115,120,130,140,150,150,150,150,130,130,130,130,120,120,120,120,110,110,130,140,160,170,170,140,120,100,110,130,140,140,140,140,110,70,70,110,140,160,170,180,180,170,170,170,160,140,130,130,130,120,120,110,110,110,110,110,110,100,110,110,100,120,120,100,90,80,70,70,60,60,60,50,50,50,50,50,45,45,40,36,34,33,27,24,24,22,18,16,14,6,6,1,1,5,9,3,2,0,0,0,0,0,0,0,0,0,0,0,0,0,0,0,0,0,0,0,0,0,0,0,0,0,0,5,5,30,50,40,30,20,5,5,0,0,0,0,0,0,0,5,10,30,70,90,90,90,90,90,90,90,80,80,80,90,90,110,120,120,120,120,110,90,70,70,70,65,65,60,65,65,55,60,60,55,55,60,60,55,50,65,80,100,105,110,110,100,80,65,55,50,45,45,55,65,60,60,60,75,85,90,90,90,85,100,95,80,80,80,75,70,70,65,65,70,70,65,65,65,60,60,60,60,60,60,60,65,70,65,50,50,50,50,55,45,40,45,55,40,30,15,10,15,30,35,30,30,25,30,20,15,15,10,10,5,15,10,5,5,5,0,5,5,20,5,5,20,10,5,0,0,0,0,0,0,0,0,0,0,0,0,0,0,0,0,0,0
0,0,0,0,0,0,0,0,0,0,0,0,0,0,0,0,0,0,0,0,0,0,0,0,0,0,0,0,0,0,0,0,0,0,0,0,0,0,0,0,0,0,0,0,0,0,0,0,0,0,0,0,0,0,0,0,0,0,0,0,0,0,0,0,0,0,0,0,0,0,0,0,0,0,0,0,0,0,0,0,0,0,0,0,0,0,0,0,0,0,0,0,0,0,0,0,0,0,0,0,0,0,0,0,0,0,0,0,0,0,0,0,0,0,0,0,0,0,2,3,3,4,4,5,6,6,7,8,9,10,11,13,14,15,15,22,25,27,29,29,33,34,36,37,38,38,39,40,41,40,45,45,45,45,45,45,45,50,55,55,55,55,60,60,60,60,60,65,65,65,65,65,65,65,65,65,65,65,60,60,60,60,55,55,55,45,40,40,40,45,55,60,60,65,65,75,80,80,80,85,95,110,115,115,115,110,105,100,95,100,110,125,140,150,160,155,150,150,155,160,155,150,150,150,150,155,155,145,140,135,135,130,135,130,135,130,120,125,125,120,120,115,110,105,105,105,105,105,115,120,115,110,115,120,130,140,150,160,150,140,130,130,130,130,120,120,120,110,110,120,140,150,160,170,160,150,120,120,130,140,140,140,140,140,140,110,110,140,170,170,180,190,170,160,170,170,150,130,130,130,130,120,120,110,110,110,110,110,110,90,110,110,100,130,110,100,90,80,80,70,70,60,60,50,50,50,50,50,45,45,40,35,33,28,28,27,23,21,20,15,9,7,7,3,2,9,5,1,1,0,0,0,0,0,0,0,0,0,0,0,0,0,0,0,0,0,0,0,0,0,0,0,0,0,0,5,30,50,40,30,20,20,20,5,0,0,0,0,0,0,5,30,70,90,90,90,90,90,90,90,90,90,80,80,80,90,100,110,120,120,120,120,120,95,80,75,70,65,60,60,65,65,55,60,60,55,55,55,60,50,45,50,65,80,95,105,110,115,95,80,60,55,50,45,45,55,70,70,65,70,85,85,85,85,85,90,90,80,75,75,75,70,70,70,70,70,70,65,65,65,65,60,60,65,65,60,65,65,70,40,20,25,35,45,65,45,45,45,55,45,40,30,20,25,30,25,35,30,30,30,20,20,10,5,5,5,15,5,10,5,5,5,5,10,10,5,5,5,10,5,5,0,0,0,0,0,0,0,0,0,0,0,0,0,0,0,0,0
0,0,0,0,0,0,0,0,0,0,0,0,0,0,0,0,0,0,0,0,0,0,0,0,0,0,0,0,0,0,0,0,0,0,0,0,0,0,0,0,0,0,0,0,0,0,0,0,0,0,0,0,0,0,0,0,0,0,0,0,0,0,0,0,0,0,0,0,0,0,0,0,0,0,0,0,0,0,0,0,0,0,0,0,0,0,0,0,0,0,0,0,0,0,0,0,0,0,0,0,0,0,0,0,0,0,0,0,0,0,0,0,0,0,0,0,0,0,0,2,2,2,2,3,4,4,4,6,8,10,11,12,13,14,18,24,26,28,30,32,33,35,37,38,39,40,41,41,42,45,45,45,50,50,50,50,45,50,55,55,55,60,60,60,60,60,65,65,65,65,65,65,65,65,65,65,65,65,65,60,60,60,60,60,55,50,45,40,40,45,50,55,60,55,55,70,80,80,80,85,90,100,105,110,110,105,100,90,95,100,105,105,115,150,150,160,150,150,150,160,150,150,150,145,150,150,155,150,140,135,130,130,135,135,135,130,120,125,120,120,120,120,120,110,105,120,110,105,110,125,120,115,115,120,130,140,160,160,150,130,130,130,130,130,120,110,110,110,120,130,140,160,170,160,160,150,130,130,140,140,150,140,140,140,140,140,150,160,170,170,190,190,160,160,180,180,150,140,130,130,130,120,110,110,110,110,110,110,110,90,110,110,110,120,110,100,90,80,80,70,70,60,60,60,50,50,50,50,45,54,40,40,31,31,27,28,28,23,21,21,9,8,5,3,9,10,3,2,1,0,0,0,0,0,0,0,0,0,0,0,0,0,0,0,0,0,0,0,0,0,0,0,0,5,5,20,20,20,15,10,15,20,20,15,5,5,5,0,0,5,30,80,90,90,90,90,90,90,90,90,90,90,80,80,80,90,90,90,110,120,120,120,120,95,85,80,70,65,60,60,60,60,55,60,55,55,40,55,55,50,45,45,50,60,75,90,100,105,110,90,75,50,50,55,50,55,70,75,75,75,80,85,85,85,85,85,85,85,80,75,75,75,75,65,65,70,70,70,70,70,65,60,60,65,65,60,65,60,35,15,5,10,15,40,50,65,45,50,50,50,50,40,30,30,30,35,40,35,35,40,15,10,5,5,5,5,5,20,10,10,5,5,5,5,15,5,5,10,10,10,5,0,0,0,0,0,0,0,0,0,0,0,0,0,0,0,0,0
0,0,0,0,0,0,0,0,0,0,0,0,0,0,0,0,0,0,0,0,0,0,0,0,0,0,0,0,0,0,0,0,0,0,0,0,0,0,0,0,0,0,0,0,0,0,0,0,0,0,0,0,0,0,0,0,0,0,0,0,0,0,0,0,0,0,0,0,0,0,0,0,0,0,0,0,0,0,0,0,0,0,0,0,0,0,0,0,0,0,0,0,0,0,0,0,0,0,0,0,0,0,0,0,0,0,0,0,0,0,0,0,0,0,0,0,0,0,0,0,0,2,2,2,3,3,3,4,5,8,10,10,12,13,18,22,27,29,30,33,34,36,38,39,39,40,42,42,45,45,45,50,50,50,50,50,50,50,50,50,55,60,60,60,60,60,65,65,65,65,65,65,65,65,65,65,65,65,65,65,60,60,60,60,60,50,45,40,40,45,50,50,55,55,55,65,70,80,80,80,90,95,100,105,105,100,95,90,95,95,100,105,105,115,150,155,150,150,150,165,155,155,150,145,145,150,155,155,140,135,130,125,135,135,135,130,120,125,120,120,120,125,130,120,120,130,130,130,125,125,120,120,120,130,130,140,150,160,140,130,130,120,120,120,120,110,110,110,120,130,140,160,170,160,150,150,140,140,140,150,150,140,140,140,140,150,160,170,170,180,190,180,160,160,170,170,150,140,130,130,120,120,110,110,110,110,100,110,100,90,100,100,110,110,110,100,90,80,80,70,70,70,60,60,60,50,50,50,45,45,40,40,30,33,29,27,27,24,25,21,18,10,4,3,10,3,3,4,1,0,0,0,0,0,0,0,0,0,0,0,0,0,0,0,0,0,0,0,0,0,0,0,0,5,20,20,10,5,0,5,10,20,15,5,5,5,5,0,5,30,70,90,90,90,90,90,90,90,90,90,90,90,80,80,80,80,80,80,100,120,120,120,120,110,90,80,75,65,60,60,60,60,55,60,50,50,50,50,60,55,50,45,50,60,65,70,95,105,110,110,85,75,70,65,60,65,70,70,70,70,70,80,85,85,85,85,85,85,85,80,80,80,80,70,70,70,70,65,70,70,65,65,65,65,70,70,65,45,20,5,5,5,5,15,50,65,65,50,50,50,50,45,35,25,30,35,35,45,40,25,5,5,15,10,15,15,5,10,30,10,10,5,5,10,15,5,5,5,10,5,5,5,0,0,0,0,0,0,0,0,0,0,0,0,0,0,0,0
0,0,0,0,0,0,0,0,0,0,0,0,0,0,0,0,0,0,0,0,0,0,0,0,0,0,0,0,0,0,0,0,0,0,0,0,0,0,0,0,0,0,0,0,0,0,0,0,0,0,0,0,0,0,0,0,0,0,0,0,0,0,0,0,0,0,0,0,0,0,0,0,0,0,0,0,0,0,0,0,0,0,0,0,0,0,0,0,0,0,0,0,0,0,0,0,0,0,0,0,0,0,0,0,0,0,0,0,0,0,0,0,0,0,0,0,0,0,0,0,0,0,0,2,3,3,3,3,2,2,1,5,10,11,19,22,24,25,29,32,35,37,39,40,40,41,42,44,45,45,45,50,50,55,55,55,55,55,55,50,50,50,60,60,60,60,65,65,65,65,65,65,65,65,65,65,65,65,65,65,60,60,60,60,60,55,45,40,40,45,45,50,50,50,55,60,60,70,70,75,85,90,95,100,95,95,90,90,90,90,80,90,105,115,125,150,155,160,160,165,165,165,150,145,145,150,155,150,140,130,135,130,135,135,130,125,120,125,120,120,125,130,130,125,130,130,140,140,140,125,125,125,130,130,130,140,160,160,140,130,130,120,120,120,120,120,120,110,110,120,130,170,170,160,150,150,140,130,130,150,150,140,130,140,150,160,160,170,170,190,190,170,160,160,170,170,150,140,130,130,120,110,110,110,110,110,110,110,100,90,110,120,110,110,100,100,90,80,80,70,70,70,60,60,60,60,50,50,45,45,40,40,31,33,26,25,26,27,25,25,23,8,3,3,8,4,3,2,0,0,0,0,0,0,0,0,0,0,0,0,0,0,0,0,0,0,0,0,0,0,0,0,5,20,20,5,0,0,0,0,5,20,5,0,0,0,0,5,30,60,80,90,80,70,70,90,90,90,90,90,90,80,80,80,80,80,80,80,100,120,120,120,120,100,90,85,75,60,60,60,60,60,60,60,55,55,55,55,60,60,55,50,50,55,60,60,70,95,105,110,110,90,70,60,60,70,65,65,70,70,65,70,80,85,85,85,85,85,85,75,80,80,75,75,70,70,65,35,35,70,70,70,70,75,70,65,60,35,5,5,5,5,5,10,40,70,70,50,50,45,45,45,40,30,30,35,40,45,30,20,5,0,15,15,10,20,10,10,20,15,15,10,5,20,30,20,5,10,10,10,5,0,0,0,0,0,0,0,0,0,0,0,0,0,0,0,0,0
0,0,0,0,0,0,0,0,0,0,0,0,0,0,0,0,0,0,0,0,0,0,0,0,0,0,0,0,0,0,0,0,0,0,0,0,0,0,0,0,0,0,0,0,0,0,0,0,0,0,0,0,0,0,0,0,0,0,0,0,0,0,0,0,0,0,0,0,0,0,0,0,0,0,0,0,0,0,0,0,0,0,0,0,0,0,0,0,0,0,0,0,0,0,0,0,0,0,0,0,0,0,0,0,0,0,0,0,0,0,0,0,0,0,0,0,0,0,0,0,0,0,0,2,2,2,2,3,2,2,2,2,9,14,16,22,25,27,31,30,35,36,38,40,42,43,44,46,47,50,45,50,50,55,55,55,55,55,55,55,50,50,45,60,60,60,65,65,65,65,65,65,65,65,65,65,65,65,65,65,65,65,60,60,60,60,50,45,45,45,45,45,50,50,55,55,60,60,65,70,80,85,85,90,90,90,90,85,85,85,70,95,105,105,110,150,150,150,150,145,145,140,150,145,140,140,150,150,135,130,140,135,140,135,135,125,120,125,120,125,120,130,130,130,130,140,140,160,140,130,130,125,130,130,130,140,160,160,140,140,130,120,120,120,120,120,120,120,120,130,150,180,170,160,150,140,130,130,130,140,140,130,130,140,150,160,170,170,170,190,180,170,160,170,170,160,150,140,130,130,110,110,110,110,110,110,110,110,100,110,120,120,110,100,100,100,90,80,80,70,70,70,70,60,60,60,60,50,45,45,45,40,33,33,26,27,25,25,25,25,20,10,7,6,6,6,5,1,1,0,0,0,0,0,0,0,0,0,0,0,0,0,0,0,0,0,0,0,0,0,0,0,5,10,5,0,0,0,0,0,15,20,5,0,0,0,0,10,50,60,90,40,10,30,60,70,90,90,90,90,90,80,80,80,80,80,80,80,80,110,120,120,110,90,90,80,70,65,60,60,60,60,50,55,60,60,55,55,60,60,60,60,55,55,55,60,65,75,95,110,110,105,80,70,65,70,70,65,65,70,70,70,80,85,85,85,85,85,80,75,75,80,75,75,70,70,65,35,35,65,70,70,65,40,50,65,60,25,5,0,0,0,0,5,35,45,70,65,55,50,45,45,40,35,30,35,40,45,45,5,0,0,20,20,15,20,10,10,10,10,5,15,10,25,25,10,10,5,5,5,0,0,0,0,0,0,0,0,0,0,0,0,0,0,0,0,0,0
0,0,0,0,0,0,0,0,0,0,0,0,0,0,0,0,0,0,0,0,0,0,0,0,0,0,0,0,0,0,0,0,0,0,0,0,0,0,0,0,0,0,0,0,0,0,0,0,0,0,0,0,0,0,0,0,0,0,0,0,0,0,0,0,0,0,0,0,0,0,0,0,0,0,0,0,0,0,0,0,0,0,0,0,0,0,0,0,0,0,0,0,0,0,0,0,0,0,0,0,0,0,0,0,0,0,0,0,0,0,0,0,0,0,0,0,0,0,0,0,0,0,0,0,0,0,2,2,2,2,2,4,7,11,16,20,24,27,30,31,30,37,38,40,43,44,44,45,46,50,50,50,50,55,55,55,55,55,60,60,55,55,50,50,60,65,65,65,65,65,65,65,65,65,65,65,65,65,65,65,65,65,65,65,60,60,50,50,50,50,50,50,45,45,50,50,55,60,65,70,75,75,80,85,85,85,85,85,85,75,75,65,90,80,80,90,115,145,150,150,145,140,145,145,145,145,145,145,135,135,140,145,140,140,135,130,120,120,120,120,120,130,130,140,140,140,150,150,140,130,140,140,130,130,130,150,160,160,140,140,130,120,120,120,120,120,130,130,130,140,170,180,160,150,130,130,130,130,130,130,130,130,130,140,160,170,170,170,170,180,180,170,170,170,170,160,150,140,130,120,110,110,110,110,110,110,110,110,110,120,120,120,110,100,100,100,90,80,80,70,70,70,70,60,60,60,60,60,45,54,45,40,34,33,28,31,29,27,24,25,25,9,11,11,7,7,6,3,4,1,0,0,0,0,0,0,0,0,0,0,0,0,0,0,0,0,0,0,0,0,0,0,0,5,0,0,0,0,0,5,10,15,10,0,0,0,0,10,30,70,90,40,0,5,20,60,90,90,90,90,90,90,80,80,80,80,80,80,100,110,120,120,100,80,70,70,65,60,60,60,55,50,50,50,60,60,45,50,55,60,60,65,55,50,50,50,60,70,75,95,105,110,100,90,65,70,70,70,65,65,65,75,70,80,85,85,85,85,80,80,75,75,75,75,70,70,60,50,60,65,70,70,40,15,20,60,55,50,10,5,0,0,0,5,30,40,55,60,60,50,45,40,40,35,35,40,45,45,20,5,0,5,20,15,15,20,10,10,10,5,10,10,10,10,10,15,5,15,5,0,0,0,0,0,0,0,0,0,0,0,0,0,0,0,0,0,0,0
0,0,0,0,0,0,0,0,0,0,0,0,0,0,0,0,0,0,0,0,0,0,0,0,0,0,0,0,0,0,0,0,0,0,0,0,0,0,0,0,0,0,0,0,0,0,0,0,0,0,0,0,0,0,0,0,0,0,0,0,0,0,0,0,0,0,0,0,0,0,0,0,0,0,0,0,0,0,0,0,0,0,0,0,0,0,0,0,0,0,0,0,0,0,0,0,0,0,0,0,0,0,0,0,0,0,0,0,0,0,0,0,0,0,0,0,0,0,0,0,0,0,0,0,0,0,0,1,2,2,2,4,5,7,14,20,20,25,25,29,30,35,39,40,42,44,45,45,45,45,50,50,50,55,55,55,55,55,60,60,60,55,55,50,50,65,65,65,65,65,65,65,65,65,65,65,65,65,65,65,70,70,70,65,65,60,55,50,50,50,50,50,45,45,45,45,50,55,65,70,70,60,65,75,85,85,85,80,80,80,75,55,60,45,35,25,65,115,130,140,135,140,145,145,145,145,145,140,140,140,145,150,145,140,140,135,130,120,120,120,120,130,130,140,150,150,150,140,130,130,140,140,130,130,140,150,160,150,140,140,130,130,120,120,120,130,130,130,140,160,180,170,150,130,120,110,120,130,130,130,130,130,140,150,170,170,160,170,170,170,170,170,170,180,160,150,160,150,130,120,110,110,110,110,110,110,110,110,120,120,120,120,110,100,100,90,90,80,80,70,70,70,70,70,60,60,60,60,45,45,45,40,33,30,33,32,30,28,25,25,26,22,20,18,12,8,7,6,1,1,0,0,0,0,0,0,0,0,0,0,0,0,0,0,0,0,0,0,0,0,0,0,0,0,0,0,0,0,0,5,5,5,5,0,0,0,5,10,20,70,90,30,0,0,10,40,70,90,90,90,90,90,90,80,80,80,80,80,100,110,120,110,100,80,70,70,65,60,60,60,55,55,50,50,55,50,45,45,50,55,60,65,65,50,45,45,50,65,70,75,100,110,110,100,90,70,70,70,70,70,70,65,70,70,80,85,85,80,85,80,75,70,75,70,70,70,65,60,65,65,70,65,30,10,10,20,55,50,20,5,0,5,10,5,5,50,60,60,50,55,50,40,40,40,30,30,45,30,20,5,0,10,20,20,20,25,10,10,5,10,5,5,10,5,10,5,5,5,5,5,5,0,0,5,5,0,0,0,0,0,0,0,0,0,0,0,0,0
0,0,0,0,0,0,0,0,0,0,0,0,0,0,0,0,0,0,0,0,0,0,0,0,0,0,0,0,0,0,0,0,0,0,0,0,0,0,0,0,0,0,0,0,0,0,0,0,0,0,0,0,0,0,0,0,0,0,0,0,0,0,0,0,0,0,0,0,0,0,0,0,0,0,0,0,0,0,0,0,0,0,0,0,0,0,0,0,0,0,0,0,0,0,0,0,0,0,0,0,0,0,0,0,0,0,0,0,0,0,0,0,0,0,0,0,0,0,0,0,0,0,0,0,0,0,0,0,0,1,1,3,4,4,11,15,20,25,25,25,30,35,38,41,42,44,45,26,26,45,50,50,50,55,55,55,55,55,60,60,60,60,60,55,55,60,65,65,65,65,65,65,70,70,65,65,65,65,65,65,70,70,70,65,65,60,55,50,50,50,50,50,45,40,40,45,45,55,60,65,60,60,60,50,50,80,80,80,80,80,65,50,45,40,20,20,35,85,115,90,85,140,150,145,140,140,140,140,145,145,145,150,145,140,145,140,130,120,120,130,130,130,130,140,160,150,140,140,130,130,130,130,130,130,140,150,150,150,140,140,130,120,120,120,130,130,130,140,140,160,180,170,140,120,110,110,120,130,130,130,130,140,140,160,160,160,160,160,170,170,160,170,180,180,150,140,170,160,130,120,110,110,110,110,110,110,110,120,130,130,120,110,110,100,100,90,80,80,80,80,80,80,70,70,70,60,60,60,45,45,45,40,31,32,33,31,31,29,26,25,26,23,21,18,9,5,5,5,5,1,0,0,0,0,0,0,0,0,0,0,0,0,0,0,0,0,0,0,0,0,0,0,0,0,0,0,0,0,0,0,0,0,0,0,0,0,0,5,5,50,90,10,0,0,10,30,60,90,90,90,90,90,90,90,90,90,80,80,80,110,110,110,110,70,70,70,70,65,60,60,50,55,50,50,50,50,45,50,50,50,55,60,65,50,45,45,45,60,65,70,85,105,105,110,75,75,70,70,70,70,70,65,65,60,80,85,85,80,85,85,80,75,70,70,70,70,65,65,65,70,70,65,15,10,10,15,50,45,20,10,5,30,40,15,25,50,50,30,50,65,55,45,35,35,35,35,45,30,15,5,0,20,20,20,15,15,15,10,10,10,10,10,5,5,0,0,0,5,5,5,5,5,5,5,5,0,0,0,0,0,0,0,0,0,0,0,0,0
0,0,0,0,0,0,0,0,0,0,0,0,0,0,0,0,0,0,0,0,0,0,0,0,0,0,0,0,0,0,0,0,0,0,0,0,0,0,0,0,0,0,0,0,0,0,0,0,0,0,0,0,0,0,0,0,0,0,0,0,0,0,0,0,0,0,0,0,0,0,0,0,0,0,0,0,0,0,0,0,0,0,0,0,0,0,0,0,0,0,0,0,0,0,0,0,0,0,0,0,0,0,0,0,0,0,0,0,0,0,0,0,0,0,0,0,0,0,0,0,0,0,0,0,0,0,0,0,0,0,1,1,3,4,8,13,20,20,25,25,25,30,38,40,42,44,45,26,27,45,50,50,55,55,55,55,55,55,60,65,65,65,60,60,60,60,60,65,65,65,65,65,70,70,70,70,70,70,70,65,65,70,70,65,65,65,60,55,55,50,50,50,45,40,40,40,45,50,55,55,55,55,55,50,50,50,75,80,75,70,40,45,35,25,25,30,40,65,80,55,55,55,85,140,140,140,140,140,150,155,155,150,145,140,140,140,130,130,130,130,130,130,140,150,160,150,140,130,130,130,130,130,130,130,140,150,150,150,140,130,130,120,120,120,130,130,140,140,150,170,170,150,130,120,110,110,110,120,130,130,140,140,160,160,160,160,160,160,160,160,160,170,180,160,140,140,150,160,140,120,110,110,110,110,110,110,110,120,120,120,120,110,100,100,100,90,80,80,80,80,80,80,80,70,70,70,60,60,45,45,45,40,34,33,33,32,32,29,28,25,26,24,22,18,8,6,9,6,5,3,1,0,0,0,0,0,0,0,0,0,0,0,0,0,0,0,0,0,0,0,0,0,0,0,0,0,0,0,0,0,0,0,0,0,0,0,0,0,5,15,90,10,0,0,20,50,80,90,90,90,90,90,90,90,90,90,80,80,100,110,110,110,100,70,70,70,70,65,65,60,50,60,50,50,50,50,55,55,50,50,55,55,65,55,50,45,45,55,65,70,75,95,105,110,100,85,75,75,75,75,70,70,65,60,70,85,85,85,75,75,80,75,65,70,70,70,65,60,65,65,65,65,25,5,5,5,45,35,35,20,10,40,40,45,50,45,5,5,15,55,60,50,40,40,40,40,50,40,10,10,5,25,25,20,20,35,20,10,10,10,20,25,20,5,10,0,0,5,5,5,5,5,5,5,0,0,0,0,0,0,0,0,0,0,0,0,0,0
0,0,0,0,0,0,0,0,0,0,0,0,0,0,0,0,0,0,0,0,0,0,0,0,0,0,0,0,0,0,0,0,0,0,0,0,0,0,0,0,0,0,0,0,0,0,0,0,0,0,0,0,0,0,0,0,0,0,0,0,0,0,0,0,0,0,0,0,0,0,0,0,0,0,0,0,0,0,0,0,0,0,0,0,0,0,0,0,0,0,0,0,0,0,0,0,0,0,0,0,0,0,0,0,0,0,0,0,0,0,0,0,0,0,0,0,0,0,0,0,0,0,0,0,0,0,0,0,0,0,0,1,4,4,8,11,15,20,25,25,30,35,38,39,42,44,26,27,28,45,50,50,55,55,55,55,55,55,60,65,65,65,65,65,65,60,60,65,65,65,65,65,70,70,70,70,70,70,70,65,65,70,70,70,65,65,60,60,55,55,55,50,45,40,40,35,40,45,50,50,50,50,45,45,50,60,70,75,70,55,35,35,30,25,30,35,45,50,50,50,55,50,55,90,130,135,135,140,150,155,155,155,150,140,140,130,130,130,130,130,130,130,140,150,160,150,140,130,130,130,130,130,130,130,140,150,150,150,140,130,130,120,120,120,130,140,140,140,150,170,150,130,120,110,110,110,110,110,120,130,140,160,160,160,160,150,150,160,160,160,160,160,160,150,140,140,150,160,150,120,110,110,120,110,110,110,120,130,130,120,120,110,110,100,100,80,80,90,80,80,80,80,80,80,70,70,70,60,45,45,45,40,34,30,33,34,32,31,28,26,23,24,24,18,14,10,7,10,7,5,1,0,0,0,0,0,0,0,0,0,0,0,0,0,0,0,0,0,0,0,0,0,0,0,0,0,0,0,0,0,0,0,0,0,0,0,0,0,0,30,80,50,5,5,20,60,80,90,90,90,70,80,90,90,90,90,90,80,90,100,110,110,90,70,70,65,65,65,65,60,50,60,55,50,50,50,55,55,45,55,60,65,65,55,50,45,45,50,60,70,75,85,100,105,110,95,85,80,80,80,80,75,70,70,65,80,85,80,80,75,75,75,70,65,60,70,65,65,65,65,60,55,35,5,0,5,35,35,30,20,5,20,40,45,45,35,0,0,5,55,60,60,45,45,45,55,50,30,10,10,15,30,40,30,30,25,15,15,15,15,35,35,5,10,5,0,0,5,5,0,5,5,5,5,5,5,0,0,0,0,0,0,5,5,5,5,0,0
0,0,0,0,0,0,0,0,0,0,0,0,0,0,0,0,0,0,0,0,0,0,0,0,0,0,0,0,0,0,0,0,0,0,0,0,0,0,0,0,0,0,0,0,0,0,0,0,0,0,0,0,0,0,0,0,0,0,0,0,0,0,0,0,0,0,0,0,0,0,0,0,0,0,0,0,0,0,0,0,0,0,0,0,0,0,0,0,0,0,0,0,0,0,0,0,0,0,0,0,0,0,0,0,0,0,0,0,0,0,0,0,0,0,0,0,0,0,0,0,0,0,0,0,0,0,0,0,0,0,0,0,2,7,7,10,10,15,25,25,30,35,37,39,41,43,45,27,28,50,50,55,55,55,55,55,60,60,60,65,65,70,70,65,65,60,60,60,65,65,65,65,70,70,70,70,70,70,70,70,65,65,70,70,65,65,65,60,60,60,55,50,45,40,40,35,35,40,45,45,45,45,45,45,50,60,45,40,45,50,40,35,30,25,30,40,45,40,40,50,55,50,55,80,100,125,130,135,145,150,150,155,155,145,140,130,130,130,130,130,140,140,140,150,160,150,140,130,130,140,130,130,130,140,150,150,150,140,140,130,130,130,120,130,130,140,140,150,180,170,140,130,120,110,110,110,110,110,120,140,150,160,160,160,150,150,150,160,160,160,150,150,150,140,140,140,140,160,140,120,110,110,120,110,110,120,130,130,120,120,120,110,110,100,90,80,90,90,90,90,90,80,80,80,70,70,70,60,45,45,45,40,32,32,33,36,34,32,30,28,26,25,24,20,19,16,8,8,8,8,2,1,1,1,0,0,0,0,0,0,0,0,0,0,0,0,0,0,0,0,0,0,0,0,0,0,0,0,0,0,0,0,0,0,0,0,0,0,5,30,80,60,10,10,50,60,80,80,80,60,30,60,80,80,90,100,90,90,90,100,110,100,80,70,70,70,70,65,65,60,50,55,55,55,55,50,50,55,50,50,60,65,70,65,55,50,45,45,50,65,70,80,90,100,105,105,90,80,80,80,75,75,65,70,70,75,80,80,80,75,75,70,70,65,60,65,65,65,65,60,60,55,50,5,0,0,10,30,25,10,5,5,30,40,45,40,5,5,5,10,55,55,50,55,55,55,50,35,30,25,30,35,45,30,25,5,5,15,15,15,40,45,5,5,5,0,0,5,5,0,5,5,5,5,5,5,0,0,0,0,0,5,10,30,15,5,0,0
0,0,0,0,0,0,0,0,0,0,0,0,0,0,0,0,0,0,0,0,0,0,0,0,0,0,0,0,0,0,0,0,0,0,0,0,0,0,0,0,0,0,0,0,0,0,0,0,0,0,0,0,0,0,0,0,0,0,0,0,0,0,0,0,0,0,0,0,0,0,0,0,0,0,0,0,0,0,0,0,0,0,0,0,0,0,0,0,0,0,0,0,0,0,0,0,0,0,0,0,0,0,0,0,0,0,0,0,0,0,0,0,0,0,0,0,0,0,0,0,0,0,0,0,0,0,0,0,0,0,0,1,2,8,10,11,12,15,20,25,30,30,35,38,38,38,45,27,28,50,50,55,55,55,55,60,60,60,65,65,65,70,70,70,70,65,60,60,65,65,65,65,70,70,70,70,70,70,70,70,70,65,65,65,70,65,65,65,65,60,60,55,50,40,40,35,35,35,40,40,40,40,45,45,45,50,45,40,45,40,35,35,35,30,35,40,40,30,40,45,40,50,45,50,65,85,125,130,140,150,155,155,155,155,145,140,130,130,130,130,130,140,140,160,170,140,130,130,140,140,130,130,130,140,150,150,150,140,140,140,130,130,120,130,140,140,140,150,180,170,140,120,110,110,110,110,110,110,120,130,140,140,160,150,160,160,150,160,160,160,150,150,150,140,140,140,140,150,150,120,120,110,110,110,120,130,130,130,120,110,110,100,100,100,90,80,90,90,90,90,90,80,80,80,70,70,70,70,60,45,45,40,35,36,37,37,35,33,31,29,27,25,23,22,21,20,12,5,7,5,4,1,2,1,0,0,0,0,0,0,0,0,0,0,0,0,0,0,0,0,0,0,0,0,0,0,0,0,0,0,0,0,0,0,0,0,0,5,10,60,80,70,40,30,50,60,80,80,60,20,20,30,60,80,90,100,90,90,100,110,110,100,90,70,70,70,70,65,60,60,50,50,50,55,55,55,55,55,55,45,50,70,70,70,65,60,50,50,50,60,70,80,90,95,100,105,95,85,80,80,75,70,65,65,70,70,80,80,75,75,80,75,70,70,65,65,65,65,60,60,55,50,40,5,0,0,5,10,10,5,0,0,5,35,45,40,40,5,0,0,10,50,50,50,55,50,45,45,35,35,35,40,25,20,5,5,0,5,10,5,15,35,15,5,5,0,5,5,5,0,5,0,0,0,5,0,0,0,0,0,0,0,10,5,10,15,0,0
0,0,0,0,0,0,0,0,0,0,0,0,0,0,0,0,0,0,0,0,0,0,0,0,0,0,0,0,0,0,0,0,0,0,0,0,0,0,0,0,0,0,0,0,0,0,0,0,0,0,0,0,0,0,0,0,0,0,0,0,0,0,0,0,0,0,0,0,0,0,0,0,0,0,0,0,0,0,0,0,0,0,0,0,0,0,0,0,0,0,0,0,0,0,0,0,0,0,0,0,0,0,0,0,0,0,0,0,0,0,0,0,0,0,0,0,0,0,0,0,0,0,0,0,0,0,0,0,0,0,0,1,3,6,7,11,10,13,20,25,30,30,35,35,35,40,45,45,45,50,50,55,55,55,55,60,60,60,65,65,65,70,70,70,70,70,65,60,60,65,65,65,70,70,70,70,70,70,70,70,70,70,65,65,70,65,65,65,65,60,60,55,45,40,35,30,30,35,35,35,40,40,40,40,40,40,40,40,40,35,30,35,30,35,35,35,35,35,40,35,35,45,45,40,40,35,65,115,130,150,155,155,155,155,150,140,140,130,130,130,130,130,140,160,160,140,130,130,140,130,130,130,140,140,150,150,150,150,140,140,130,130,130,130,140,140,140,150,170,160,140,120,110,110,110,110,110,110,130,140,150,140,160,150,160,160,150,150,150,150,150,150,150,140,140,140,140,140,140,130,120,120,120,120,130,130,130,120,110,110,110,100,100,100,90,80,90,90,90,90,90,90,80,80,70,70,70,70,60,45,54,45,42,42,40,37,35,33,32,30,28,26,25,22,21,20,18,12,9,7,5,1,3,1,0,0,0,0,0,0,0,0,0,0,0,0,0,0,0,0,0,0,0,0,0,0,0,0,0,0,0,0,0,0,0,0,0,5,40,70,80,70,30,15,30,70,80,70,30,5,0,5,40,70,90,100,90,90,100,110,110,100,80,70,70,70,70,65,60,60,50,50,50,50,55,55,55,50,55,55,55,70,75,75,70,65,55,55,55,55,60,80,90,90,95,100,90,85,80,75,70,75,70,65,65,65,65,70,80,80,80,75,70,70,65,65,65,60,60,60,50,45,30,10,0,0,0,5,5,0,0,0,0,5,40,45,30,0,0,0,10,45,50,50,55,50,45,30,15,15,5,5,10,5,5,0,0,0,0,0,5,25,15,5,0,0,5,5,5,0,0,0,0,0,0,0,0,0,0,0,0,0,0,5,5,5,0,0
0,0,0,0,0,0,0,0,0,0,0,0,0,0,0,0,0,0,0,0,0,0,0,0,0,0,0,0,0,0,0,0,0,0,0,0,0,0,0,0,0,0,0,0,0,0,0,0,0,0,0,0,0,0,0,0,0,0,0,0,0,0,0,0,0,0,0,0,0,0,0,0,0,0,0,0,0,0,0,0,0,0,0,0,0,0,0,0,0,0,0,0,0,0,0,0,0,0,0,0,0,0,0,0,0,0,0,0,0,0,0,0,0,0,0,0,0,0,0,0,0,0,0,0,0,0,0,0,0,0,0,1,3,5,6,9,10,11,15,25,30,30,35,35,40,40,45,45,45,50,50,55,55,55,55,60,60,60,65,65,70,70,75,75,70,70,70,65,65,65,65,65,65,70,70,70,70,70,70,70,70,70,70,65,65,65,65,65,65,65,60,60,50,40,35,30,30,30,30,35,35,35,40,40,40,40,40,35,35,30,30,30,30,35,40,35,35,30,25,30,45,45,40,35,25,35,45,55,105,135,150,150,150,155,155,145,140,130,130,130,130,140,150,160,150,140,130,130,130,130,130,130,140,150,150,150,150,150,150,140,130,130,130,140,140,140,140,150,160,150,140,130,110,110,110,110,110,120,130,150,160,160,160,150,150,150,140,140,150,150,150,150,140,140,140,140,140,130,130,130,130,130,130,140,130,130,120,120,110,110,110,110,100,100,90,90,90,90,90,90,90,90,80,80,70,70,70,70,60,45,45,45,45,44,41,39,36,34,32,30,28,26,25,22,21,20,18,10,7,5,2,2,4,0,0,0,0,0,0,0,0,0,0,0,0,0,0,0,0,0,0,0,0,0,0,0,0,0,0,0,0,0,0,0,0,0,0,10,70,80,80,60,5,5,15,70,70,70,10,0,0,5,5,80,90,90,90,90,100,110,110,110,100,80,70,70,70,65,65,60,50,50,50,50,50,55,60,60,60,60,70,70,75,80,75,75,70,60,60,60,60,75,90,90,90,95,95,85,80,80,70,70,70,65,70,65,70,80,85,75,75,75,70,70,65,65,65,65,60,60,45,40,15,5,0,0,0,0,0,0,0,0,0,0,40,45,20,0,0,0,25,45,45,50,55,50,45,5,5,5,0,0,0,0,0,0,0,0,0,0,0,15,20,10,5,0,5,5,5,5,5,0,0,0,0,0,0,0,0,0,0,0,5,5,10,5,0,0
0,0,0,0,0,0,0,0,0,0,0,0,0,0,0,0,0,0,0,0,0,0,0,0,0,0,0,0,0,0,0,0,0,0,0,0,0,0,0,0,0,0,0,0,0,0,0,0,0,0,0,0,0,0,0,0,0,0,0,0,0,0,0,0,0,0,0,0,0,0,0,0,0,0,0,0,0,0,0,0,0,0,0,0,0,0,0,0,0,0,0,0,0,0,0,0,0,0,0,0,0,0,0,0,0,0,0,0,0,0,0,0,0,0,0,0,0,0,0,0,0,0,0,0,0,0,0,0,0,0,0,0,1,3,5,5,9,10,15,25,30,30,30,35,35,40,45,45,45,50,50,55,55,55,55,55,60,60,65,65,70,70,75,75,75,70,70,70,65,65,65,65,65,65,70,70,70,70,70,70,70,70,70,70,65,65,65,65,65,65,65,60,55,45,35,30,30,30,30,30,30,30,35,35,35,35,35,35,35,35,35,35,35,40,40,35,30,30,30,30,40,40,35,30,30,40,45,45,70,115,140,150,150,150,155,150,140,140,120,120,130,140,160,160,150,140,130,140,140,140,130,140,140,150,150,150,150,150,150,140,130,130,130,140,140,140,140,150,150,150,140,120,110,110,110,110,120,130,150,150,160,160,150,150,150,140,140,140,140,140,140,150,150,150,140,140,140,130,130,130,130,140,140,140,130,120,120,120,120,110,110,110,100,100,90,90,90,100,100,90,90,90,90,80,80,80,70,70,60,60,45,45,45,46,43,40,38,35,33,31,29,27,26,23,21,20,18,9,6,3,1,3,1,0,0,0,0,0,0,0,0,0,0,0,0,0,0,0,0,0,0,0,0,0,0,0,0,0,0,0,0,0,0,0,0,0,5,60,70,70,40,5,0,5,30,60,70,60,5,0,0,0,10,50,90,90,90,90,90,100,110,110,100,80,70,70,70,65,60,60,50,50,50,50,50,55,55,60,60,65,65,65,75,80,80,80,75,70,65,65,65,70,85,85,85,90,95,90,85,80,75,75,70,75,75,75,80,85,90,80,80,75,70,65,65,65,65,65,55,60,45,40,5,5,0,0,0,0,0,0,0,0,0,0,35,45,35,0,0,5,35,45,45,50,50,50,30,5,0,0,0,0,0,0,0,0,0,0,0,0,0,5,10,15,5,0,5,5,5,5,5,0,0,0,0,0,0,0,0,0,0,0,5,10,15,10,5,0
0,0,0,0,0,0,0,0,0,0,0,0,0,0,0,0,0,0,0,0,0,0,0,0,0,0,0,0,0,0,0,0,0,0,0,0,0,0,0,0,0,0,0,0,0,0,0,0,0,0,0,0,0,0,0,0,0,0,0,0,0,0,0,0,0,0,0,0,0,0,0,0,0,0,0,0,0,0,0,0,0,0,0,0,0,0,0,0,0,0,0,0,0,0,0,0,0,0,0,0,0,0,0,0,0,0,0,0,0,0,0,0,0,0,0,0,0,0,0,0,0,0,0,0,0,0,0,0,0,0,0,0,1,2,2,2,5,12,15,20,25,30,30,30,35,40,45,45,45,50,50,55,55,55,55,55,60,60,65,65,70,70,75,80,75,75,75,75,70,70,65,65,65,65,65,70,70,70,70,70,70,70,70,70,70,65,65,65,65,65,65,60,60,50,35,30,30,30,30,30,30,25,30,30,30,35,35,35,35,35,35,35,35,40,40,35,30,30,35,35,40,40,35,30,35,40,40,45,40,90,120,150,150,150,155,150,145,140,130,120,140,150,160,160,150,140,130,140,140,140,140,140,150,150,150,150,150,150,150,140,130,130,140,140,140,140,140,150,150,150,130,120,110,110,110,120,130,150,150,150,150,150,150,150,140,140,140,140,140,140,140,150,150,150,150,140,140,130,130,130,130,140,145,140,120,110,120,120,120,110,110,110,100,100,90,90,100,100,100,100,90,90,90,80,80,80,80,70,70,60,45,45,48,47,44,42,39,36,34,32,29,28,25,23,22,20,18,9,5,3,5,6,4,1,0,0,0,0,0,0,0,0,0,0,0,0,0,0,0,0,0,0,0,0,0,0,0,0,0,0,0,0,0,0,0,5,30,70,60,70,20,5,0,5,30,50,30,30,5,0,0,5,10,70,90,90,90,90,90,100,110,110,100,90,70,70,70,60,60,60,50,50,50,50,50,50,50,50,60,60,65,60,65,75,80,80,80,80,75,70,70,70,85,85,85,85,95,95,90,75,70,70,75,75,80,80,80,85,90,85,80,75,75,65,65,70,65,65,65,55,55,40,15,5,0,0,0,0,0,0,0,0,0,0,30,40,35,25,25,30,45,45,45,45,45,40,15,5,0,0,0,0,0,0,0,0,0,0,0,0,0,0,10,15,10,0,5,5,5,5,5,0,0,5,5,5,0,0,0,0,0,0,0,5,10,5,10,0
0,0,0,0,0,0,0,0,0,0,0,0,0,0,0,0,0,0,0,0,0,0,0,0,0,0,0,0,0,0,0,0,0,0,0,0,0,0,0,0,0,0,0,0,0,0,0,0,0,0,0,0,0,0,0,0,0,0,0,0,0,0,0,0,0,0,0,0,0,0,0,0,0,0,0,0,0,0,0,0,0,0,0,0,0,0,0,0,0,0,0,0,0,0,0,0,0,0,0,0,0,0,0,0,0,0,0,0,0,0,0,0,0,0,0,0,0,0,0,0,0,0,0,0,0,0,0,0,0,0,0,0,0,1,1,2,7,11,11,15,25,25,30,30,35,40,40,45,45,50,50,55,55,55,55,55,60,60,65,65,70,70,75,80,80,80,75,75,75,70,65,65,65,65,60,60,70,70,70,70,70,70,70,70,70,70,65,70,65,65,65,65,60,55,40,30,30,30,30,30,30,25,25,30,30,35,35,35,35,35,35,35,35,40,40,40,35,35,35,40,40,40,40,30,35,35,30,40,40,50,80,145,150,155,155,150,145,140,130,140,150,160,160,160,150,140,130,140,140,140,140,150,150,150,150,150,150,150,140,140,130,130,140,140,140,140,150,150,150,150,140,130,120,110,120,130,140,150,150,150,150,150,150,140,140,130,130,130,130,130,140,150,150,150,150,140,130,130,130,130,140,145,150,140,110,110,120,120,120,110,110,110,100,100,100,100,100,100,100,100,90,90,80,80,80,80,80,80,70,60,45,45,50,48,46,43,39,37,35,33,30,28,27,25,25,22,19,7,8,8,2,6,4,2,0,0,0,0,0,0,0,0,0,0,0,0,0,0,0,0,0,0,0,0,0,0,0,0,0,0,0,0,0,0,5,30,70,70,70,50,15,5,0,5,15,60,30,30,5,0,0,5,50,80,90,90,90,90,90,100,110,110,100,90,70,70,70,60,60,60,50,50,50,50,50,50,45,50,50,60,60,60,60,65,75,80,80,80,80,75,75,75,80,85,85,85,90,100,95,75,65,65,70,80,80,80,80,85,90,90,80,75,70,70,65,70,70,70,70,65,60,45,20,5,5,0,0,0,0,0,0,0,0,0,15,40,40,35,45,45,45,40,45,45,40,30,10,0,0,0,0,0,0,0,0,0,0,0,0,0,0,5,15,20,10,0,5,5,5,5,5,0,0,5,5,5,0,0,0,0,0,0,0,0,5,10,5,0
0,0,0,0,0,0,0,0,0,0,0,0,0,0,0,0,0,0,0,0,0,0,0,0,0,0,0,0,0,0,0,0,0,0,0,0,0,0,0,0,0,0,0,0,0,0,0,0,0,0,0,0,0,0,0,0,0,0,0,0,0,0,0,0,0,0,0,0,0,0,0,0,0,0,0,0,0,0,0,0,0,0,0,0,0,0,0,0,0,0,0,0,0,0,0,0,0,0,0,0,0,0,0,0,0,0,0,0,0,0,0,0,0,0,0,0,0,0,0,0,0,0,0,0,0,0,0,0,0,0,0,0,0,1,1,3,5,11,11,15,20,25,25,30,30,35,40,45,45,45,50,55,55,55,55,55,55,60,65,65,70,70,75,80,80,80,80,75,75,70,70,65,65,65,60,60,60,70,70,70,70,70,70,70,70,70,70,70,65,65,65,65,65,60,55,40,30,30,30,30,30,25,25,25,25,30,35,35,35,35,35,35,35,40,40,40,35,35,35,35,40,40,35,30,20,30,30,40,35,40,45,140,150,155,150,150,145,140,130,140,150,160,160,160,140,130,130,140,140,150,150,160,160,150,150,150,150,150,140,140,140,140,140,140,140,150,150,150,150,140,140,130,120,120,130,140,150,150,150,140,140,150,150,130,120,110,120,130,130,140,140,140,150,150,150,140,130,130,130,140,145,150,150,130,110,110,120,120,120,120,110,110,100,100,100,100,100,100,100,100,90,90,80,80,80,80,80,80,70,60,45,45,51,50,48,45,41,39,36,34,31,29,29,22,24,25,21,9,10,8,8,7,7,4,1,1,0,0,0,0,0,0,0,0,0,0,0,0,0,0,0,0,0,0,0,0,0,0,0,0,0,0,0,5,30,70,70,70,50,15,5,5,5,15,60,70,70,70,50,10,5,20,70,80,90,90,90,90,100,100,110,90,100,80,70,70,70,60,60,60,50,50,50,50,50,45,45,45,45,50,55,55,55,60,65,75,80,80,80,75,75,80,80,85,85,85,85,95,100,95,90,75,65,70,80,85,85,85,90,90,85,80,75,70,70,65,65,70,70,70,65,40,35,10,5,0,0,0,0,0,0,0,0,5,25,40,40,40,45,45,35,40,20,30,30,10,5,0,0,0,0,0,0,0,0,0,0,0,0,0,5,10,15,15,15,5,5,5,5,5,5,5,5,5,5,0,0,0,0,0,0,0,3,3,3,5,5,0
0,0,0,0,0,0,0,0,0,0,0,0,0,0,0,0,0,0,0,0,0,0,0,0,0,0,0,0,0,0,0,0,0,0,0,0,0,0,0,0,0,0,0,0,0,0,0,0,0,0,0,0,0,0,0,0,0,0,0,0,0,0,0,0,0,0,0,0,0,0,0,0,0,0,0,0,0,0,0,0,0,0,0,0,0,0,0,0,0,0,0,0,0,0,0,0,0,0,0,0,0,0,0,0,0,0,0,0,0,0,0,0,0,0,0,0,0,0,0,0,0,0,0,0,0,0,0,0,0,0,0,0,0,1,2,4,3,8,12,12,15,25,25,25,30,35,40,45,45,45,50,50,55,55,55,55,55,55,60,65,65,70,75,75,80,80,80,75,75,75,70,70,65,65,65,60,60,65,70,70,70,70,70,70,70,70,70,70,70,65,65,65,65,65,60,50,40,35,30,30,30,25,25,25,25,25,30,35,35,35,35,35,35,35,40,35,35,35,35,35,35,30,20,20,20,30,30,30,25,30,35,50,150,150,150,150,145,140,140,150,160,150,160,150,150,130,140,150,150,160,160,160,160,150,150,150,150,150,140,140,140,140,140,140,140,150,150,150,140,140,140,130,130,140,140,150,150,150,150,140,130,150,160,140,120,110,110,130,130,140,140,140,150,150,150,140,130,140,140,145,150,150,150,140,120,110,120,130,130,120,120,110,100,100,100,100,100,100,100,100,90,90,90,80,80,80,80,80,80,60,45,45,52,52,49,46,43,40,37,34,32,30,29,24,24,25,19,12,12,2,2,1,5,3,4,3,1,0,0,0,0,0,0,0,0,0,0,0,0,0,0,0,0,0,0,0,0,0,0,0,0,0,5,30,60,60,50,10,40,60,60,20,30,70,70,60,60,70,70,60,50,60,80,90,90,90,90,90,110,110,90,90,90,80,70,70,70,60,60,60,50,50,50,50,50,45,45,45,45,45,45,50,55,55,60,60,75,80,80,80,75,80,80,85,85,85,85,90,95,95,95,95,85,75,80,85,90,85,90,90,80,80,75,75,70,70,60,65,70,65,65,65,35,15,10,5,0,0,0,0,0,10,10,20,40,40,45,40,45,40,35,5,5,15,15,5,0,0,0,0,0,0,0,0,0,0,0,0,0,8,10,10,15,15,15,10,5,5,5,5,5,5,5,5,5,0,0,0,0,0,0,0,3,5,5,5,5,0
0,0,0,0,0,0,0,0,0,0,0,0,0,0,0,0,0,0,0,0,0,0,0,0,0,0,0,0,0,0,0,0,0,0,0,0,0,0,0,0,0,0,0,0,0,0,0,0,0,0,0,0,0,0,0,0,0,0,0,0,0,0,0,0,0,0,0,0,0,0,0,0,0,0,0,0,0,0,0,0,0,0,0,0,0,0,0,0,0,0,0,0,0,0,0,0,0,0,0,0,0,0,0,0,0,0,0,0,0,0,0,0,0,0,0,0,0,0,0,0,0,0,0,0,0,0,0,0,0,0,0,0,0,0,1,1,3,7,8,13,15,20,25,25,30,30,40,45,45,45,50,50,55,55,55,55,55,55,60,65,65,70,75,75,80,80,80,75,75,75,70,70,70,70,65,65,60,60,65,70,70,70,70,70,70,70,70,70,70,70,65,65,65,65,65,60,50,45,35,35,30,30,30,30,30,30,30,30,30,35,35,30,35,35,35,35,35,35,35,35,35,30,30,30,30,30,30,25,20,20,35,45,120,150,150,145,145,140,140,160,160,150,160,150,140,140,150,150,160,160,160,160,150,150,150,150,160,150,140,140,140,140,140,140,140,150,150,150,140,140,140,130,140,140,150,150,160,160,150,140,130,150,160,150,120,110,110,120,130,140,140,140,150,150,140,130,130,140,145,150,150,150,145,130,120,120,130,130,130,120,120,120,110,100,100,100,100,100,100,90,90,90,90,80,80,80,80,80,80,60,45,45,54,53,50,48,44,40,37,36,33,30,28,26,24,24,19,16,10,5,2,1,4,3,5,3,1,1,0,0,0,0,0,0,0,0,0,0,0,0,0,0,0,0,0,0,0,0,0,0,0,5,20,60,60,60,15,60,60,50,15,5,60,70,80,60,60,60,70,70,70,70,80,90,90,90,90,90,110,110,110,100,80,70,70,70,60,60,60,60,50,50,50,50,50,45,45,45,45,40,45,45,45,50,55,55,60,75,80,80,80,80,80,80,85,85,85,85,90,95,100,105,95,90,90,90,90,90,90,90,85,80,80,75,70,70,70,65,70,70,65,65,50,30,15,10,5,0,0,0,5,10,20,35,40,40,40,5,20,30,5,0,5,15,15,5,0,0,0,0,0,0,0,0,0,0,0,5,10,12,15,15,15,15,15,15,5,10,5,5,5,10,5,5,5,0,0,0,0,0,0,3,3,3,0,0,0,0
0,0,0,0,0,0,0,0,0,0,0,0,0,0,0,0,0,0,0,0,0,0,0,0,0,0,0,0,0,0,0,0,0,0,0,0,0,0,0,0,0,0,0,0,0,0,0,0,0,0,0,0,0,0,0,0,0,0,0,0,0,0,0,0,0,0,0,0,0,0,0,0,0,0,0,0,0,0,0,0,0,0,0,0,0,0,0,0,0,0,0,0,0,0,0,0,0,0,0,0,0,0,0,0,0,0,0,0,0,0,0,0,0,0,0,0,0,0,0,0,0,0,0,0,0,0,0,0,0,0,0,0,0,0,1,3,6,9,11,10,15,20,25,25,25,30,35,40,45,45,50,50,55,55,55,55,55,55,60,65,65,70,75,75,80,80,80,80,75,75,70,70,70,70,70,65,60,60,65,65,70,70,70,70,70,70,70,70,70,70,70,70,65,65,65,65,60,55,50,45,40,35,35,35,30,30,30,30,30,30,30,30,30,35,35,35,35,35,35,30,30,30,30,30,30,30,30,20,25,35,35,35,45,135,145,145,145,140,140,150,150,150,150,150,140,140,150,150,150,160,160,160,150,150,150,150,160,140,140,140,140,140,140,140,150,150,150,140,140,140,140,140,140,140,140,150,150,150,150,140,130,160,160,130,120,120,110,100,110,130,140,150,150,150,140,130,140,145,150,160,150,145,140,130,120,130,130,130,130,120,120,120,110,100,100,100,100,100,100,90,90,90,90,90,90,80,80,80,70,60,60,45,56,55,52,48,45,41,38,36,34,30,29,26,24,23,21,19,14,11,1,2,4,5,4,4,4,1,0,0,0,0,0,0,0,0,0,0,0,0,0,0,0,0,0,0,0,0,0,0,5,30,50,60,60,60,60,15,10,10,5,0,5,30,50,70,70,70,50,60,70,80,80,90,90,90,90,90,100,110,110,90,80,70,70,60,60,60,60,60,50,50,50,50,45,45,40,40,40,40,40,40,35,40,50,55,55,60,70,80,80,80,80,80,85,85,80,80,90,95,95,100,100,100,95,90,90,90,90,90,85,80,75,75,70,70,70,65,60,70,65,65,60,45,30,10,5,0,0,0,5,25,30,35,35,40,25,0,0,0,0,0,5,10,15,5,0,0,0,0,0,0,0,0,0,0,0,5,5,13,15,5,0,0,0,15,15,10,10,10,10,5,5,5,5,5,0,0,0,0,0,3,3,0,0,0,0,0
0,0,0,0,0,0,0,0,0,0,0,0,0,0,0,0,0,0,0,0,0,0,0,0,0,0,0,0,0,0,0,0,0,0,0,0,0,0,0,0,0,0,0,0,0,0,0,0,0,0,0,0,0,0,0,0,0,0,0,0,0,0,0,0,0,0,0,0,0,0,0,0,0,0,0,0,0,0,0,0,0,0,0,0,0,0,0,0,0,0,0,0,0,0,0,0,0,0,0,0,0,0,0,0,0,0,0,0,0,0,0,0,0,0,0,0,0,0,0,0,0,0,0,0,0,0,0,0,0,0,0,0,0,0,1,2,7,9,9,10,15,15,20,25,25,25,30,40,45,45,50,50,55,55,55,55,55,55,60,65,65,70,70,75,80,80,80,80,75,75,75,70,70,70,70,65,65,60,60,65,65,65,70,70,70,70,70,70,70,70,70,70,70,65,65,65,65,60,60,55,50,50,45,40,35,35,35,30,30,30,30,30,30,30,35,35,35,35,35,35,30,30,30,30,30,35,30,25,35,40,35,30,45,70,135,135,140,140,140,150,150,150,150,140,140,150,160,150,150,140,140,140,160,160,150,150,160,140,140,140,140,140,140,140,150,150,150,150,150,140,140,140,140,140,130,130,140,140,140,150,160,170,140,140,130,120,110,100,100,110,140,150,150,150,140,120,140,145,160,170,150,145,130,130,130,130,130,130,130,120,120,120,110,110,100,100,100,100,100,90,90,90,90,90,90,80,80,70,70,60,60,60,60,57,54,50,46,42,39,37,34,32,30,27,26,24,21,18,17,13,6,2,2,1,1,4,3,1,0,0,0,0,0,0,0,0,0,0,0,0,0,0,0,0,0,0,0,0,0,5,30,40,50,50,50,10,5,5,0,0,0,0,0,5,10,40,50,40,5,15,40,70,80,90,90,90,90,90,100,110,110,90,80,70,60,60,60,60,60,50,50,50,50,50,45,45,40,40,40,40,40,40,35,35,35,50,55,45,60,75,80,80,80,80,85,85,80,80,85,90,95,100,100,100,95,95,90,90,90,90,85,80,75,75,75,75,75,70,65,60,70,65,65,55,45,30,10,5,5,0,5,20,30,30,35,35,30,0,0,0,0,0,5,5,5,0,0,0,0,0,0,0,0,0,0,0,0,8,5,0,0,0,0,0,0,5,15,10,10,10,10,10,5,5,5,5,5,0,0,0,2,3,3,0,0,0,0,0
0,0,0,0,0,0,0,0,0,0,0,0,0,0,0,0,0,0,0,0,0,0,0,0,0,0,0,0,0,0,0,0,0,0,0,0,0,0,0,0,0,0,0,0,0,0,0,0,0,0,0,0,0,0,0,0,0,0,0,0,0,0,0,0,0,0,0,0,0,0,0,0,0,0,0,0,0,0,0,0,0,0,0,0,0,0,0,0,0,0,0,0,0,0,0,0,0,0,0,0,0,0,0,0,0,0,0,0,0,0,0,0,0,0,0,0,0,0,0,0,0,0,0,0,0,0,0,0,0,0,0,0,0,0,1,3,6,8,8,11,15,15,20,25,25,25,30,35,40,45,50,50,50,55,55,55,55,60,60,65,65,65,70,75,80,80,80,80,75,75,75,75,70,70,70,70,70,65,60,60,60,60,60,70,70,70,70,70,75,70,70,70,70,70,65,65,65,65,65,60,60,55,55,50,45,40,40,40,35,40,40,40,35,35,35,35,35,35,35,35,35,30,30,30,35,35,30,35,40,40,40,40,50,70,115,125,140,140,140,150,150,150,140,140,140,150,170,140,140,140,140,160,160,150,150,150,150,140,140,140,140,140,140,150,150,150,150,150,150,140,140,140,140,130,120,120,130,120,130,150,160,150,150,140,140,130,110,100,100,120,140,150,150,150,140,130,145,150,160,170,150,140,130,130,130,130,120,110,110,120,120,120,110,110,110,100,100,100,100,90,100,100,100,90,90,80,80,70,60,60,60,60,62,59,55,50,46,43,40,38,35,33,31,28,28,26,22,21,19,11,5,1,2,1,3,3,1,1,0,0,0,0,0,0,0,0,0,0,0,0,0,0,0,0,0,0,0,0,5,15,30,40,30,10,5,5,0,0,0,0,0,0,0,0,5,5,5,5,0,0,5,40,80,90,90,90,90,90,100,100,90,80,70,70,60,60,60,60,50,50,50,40,40,45,45,40,40,40,40,40,40,35,40,35,35,45,55,55,50,70,80,80,80,80,85,85,80,75,75,80,90,95,100,100,95,95,95,90,90,90,85,85,80,80,80,75,75,70,70,60,65,65,65,60,55,45,25,10,5,5,5,5,25,25,30,30,5,0,0,0,0,0,0,0,0,0,0,0,0,0,0,0,0,0,0,0,0,7,5,0,0,0,0,0,0,5,10,15,5,10,10,10,10,5,5,5,5,2,1,0,2,3,0,0,0,0,0,0
0,0,0,0,0,0,0,0,0,0,0,0,0,0,0,0,0,0,0,0,0,0,0,0,0,0,0,0,0,0,0,0,0,0,0,0,0,0,0,0,0,0,0,0,0,0,0,0,0,0,0,0,0,0,0,0,0,0,0,0,0,0,0,0,0,0,0,0,0,0,0,0,0,0,0,0,0,0,0,0,0,0,0,0,0,0,0,0,0,0,0,0,0,0,0,0,0,0,0,0,0,0,0,0,0,0,0,0,0,0,0,0,0,0,0,0,0,0,0,0,0,0,0,0,0,0,0,0,0,0,0,0,0,0,3,5,6,9,10,9,13,15,20,20,25,25,30,35,40,45,50,50,50,55,55,55,55,60,65,65,65,65,70,75,75,75,80,80,75,75,75,75,75,75,75,70,70,70,65,60,60,60,60,60,70,70,70,70,75,75,70,70,70,70,70,70,65,65,65,65,65,60,60,60,55,50,45,50,45,45,45,45,40,40,40,40,40,40,40,40,40,35,35,30,35,30,35,40,40,45,45,50,65,85,105,120,125,135,140,150,150,140,140,140,140,150,170,160,150,150,140,160,160,150,150,150,150,140,140,140,140,140,140,150,150,160,160,160,150,140,140,140,140,130,130,120,120,120,130,140,150,150,140,140,140,120,100,100,100,120,130,140,150,140,140,140,145,150,160,160,150,140,140,130,130,120,120,110,100,110,120,120,120,110,110,100,100,100,100,100,105,105,100,90,90,80,80,70,70,70,70,60,62,60,54,52,47,45,41,38,35,34,31,30,27,25,24,20,18,10,7,4,2,1,2,3,1,0,0,0,0,0,0,0,0,0,0,0,0,0,0,0,0,0,0,0,0,5,20,30,30,20,5,5,0,0,0,0,0,0,0,0,0,0,0,0,0,0,0,0,5,15,60,90,90,90,90,90,100,100,90,80,70,60,60,60,60,50,50,50,40,40,30,40,40,40,40,40,40,40,35,35,40,40,35,45,50,55,55,65,75,80,80,80,80,85,80,75,75,75,75,85,95,100,100,100,100,95,95,90,90,90,85,85,80,75,75,75,70,65,60,60,65,60,55,50,40,20,10,5,5,5,5,10,20,10,5,0,0,0,0,0,0,0,0,0,0,0,0,0,0,0,0,0,0,0,0,5,5,0,0,0,0,0,0,5,10,15,15,10,15,10,5,5,5,5,5,1,2,3,2,2,3,0,0,0,0,0
0,0,0,0,0,0,0,0,0,0,0,0,0,0,0,0,0,0,0,0,0,0,0,0,0,0,0,0,0,0,0,0,0,0,0,0,0,0,0,0,0,0,0,0,0,0,0,0,0,0,0,0,0,0,0,0,0,0,0,0,0,0,0,0,0,0,0,0,0,0,0,0,0,0,0,0,0,0,0,0,0,0,0,0,0,0,0,0,0,0,0,0,0,0,0,0,0,0,0,0,0,0,0,0,0,0,0,0,0,0,0,0,0,0,0,0,0,0,0,0,0,0,0,0,0,0,0,0,0,0,0,0,0,0,3,5,6,8,9,9,13,15,15,20,25,25,30,35,40,45,45,50,50,55,55,55,55,60,65,65,65,65,70,70,75,75,80,80,80,80,80,80,80,75,75,75,75,70,70,65,65,65,60,60,65,70,70,70,75,75,75,75,70,70,70,70,70,70,70,65,65,65,65,65,60,60,55,55,55,50,50,50,45,45,45,40,40,40,40,40,40,40,35,35,30,30,35,40,45,45,50,65,75,85,95,90,90,125,140,150,150,150,140,140,135,140,160,160,150,150,150,160,150,150,150,150,150,150,140,140,140,140,150,150,160,160,160,160,150,140,140,140,130,130,130,120,120,120,130,140,140,140,140,140,130,120,100,100,100,110,120,140,130,140,140,140,145,150,160,145,145,140,140,140,130,130,120,110,110,110,120,120,110,110,110,100,100,100,100,105,100,105,100,90,90,80,80,80,80,80,70,60,63,61,55,53,48,46,42,39,36,34,32,25,25,25,24,23,19,18,10,6,4,1,2,1,1,0,0,0,0,0,0,0,0,0,0,0,0,0,0,0,0,0,0,5,5,20,20,20,5,5,0,0,0,0,0,0,0,0,0,0,0,0,0,0,0,0,0,0,0,10,30,80,90,90,90,90,100,100,80,70,70,60,60,50,50,50,50,40,40,30,30,25,30,35,40,40,40,40,40,35,35,40,35,40,40,40,55,70,70,75,75,80,80,80,85,80,75,75,75,75,85,90,100,100,100,100,100,95,90,90,85,85,80,75,75,75,75,70,65,60,60,60,55,50,45,40,35,10,5,5,5,5,5,5,5,0,0,0,0,0,0,0,0,0,0,0,0,0,0,0,0,0,0,0,0,6,1,0,0,0,0,0,0,5,10,10,10,10,10,10,10,10,10,5,5,5,0,0,5,3,3,0,0,0,0,0
0,0,0,0,0,0,0,0,0,0,0,0,0,0,0,0,0,0,0,0,0,0,0,0,0,0,0,0,0,0,0,0,0,0,0,0,0,0,0,0,0,0,0,0,0,0,0,0,0,0,0,0,0,0,0,0,0,0,0,0,0,0,0,0,0,0,0,0,0,0,0,0,0,0,0,0,0,0,0,0,0,0,0,0,0,0,0,0,0,0,0,0,0,0,0,0,0,0,0,0,0,0,0,0,0,0,0,0,0,0,0,0,0,0,0,0,0,0,0,0,0,0,0,0,0,0,0,0,0,0,0,0,0,0,2,5,6,8,9,11,12,14,15,20,25,25,30,35,40,45,45,50,50,55,55,55,55,60,60,65,65,65,65,70,75,75,80,80,80,80,85,85,80,80,80,80,80,75,70,70,70,65,65,65,60,65,70,70,70,70,75,75,75,70,70,70,70,70,70,70,70,70,70,70,65,65,60,60,60,60,55,55,50,50,45,45,45,40,40,40,40,40,40,35,35,35,35,40,45,50,60,65,75,80,75,70,75,90,135,150,150,150,140,140,135,140,160,160,150,140,150,160,160,150,150,150,150,150,140,140,140,140,150,150,160,160,160,160,150,140,140,130,130,130,120,120,120,120,120,130,140,140,140,130,120,120,110,100,100,100,100,130,130,140,140,140,145,150,160,160,150,145,140,140,140,130,120,110,110,110,120,120,110,100,100,100,100,100,105,100,100,100,105,90,90,90,90,80,80,80,70,70,64,60,56,52,50,46,42,40,35,35,32,28,28,26,24,23,20,19,11,10,2,1,1,1,2,1,0,0,0,0,0,0,0,0,0,0,0,0,0,0,0,0,0,5,15,20,20,5,0,0,0,0,0,0,0,0,0,0,0,0,0,0,0,0,0,0,0,0,0,5,20,60,90,90,90,90,100,100,80,70,60,60,60,50,50,50,50,40,40,30,30,30,25,25,30,35,35,35,35,35,35,35,35,30,35,35,30,60,70,70,70,75,75,80,80,80,80,80,75,75,75,80,85,95,105,100,100,100,95,90,90,85,80,75,75,75,75,75,70,60,55,55,50,50,45,45,40,35,30,5,5,5,5,5,5,0,0,0,0,0,0,0,0,0,0,0,0,0,0,0,0,0,0,0,2,5,0,0,0,0,0,5,9,10,10,10,10,10,10,5,5,5,5,5,5,5,5,5,5,0,0,0,0,0,0,0
0,0,0,0,0,0,0,0,0,0,0,0,0,0,0,0,0,0,0,0,0,0,0,0,0,0,0,0,0,0,0,0,0,0,0,0,0,0,0,0,0,0,0,0,0,0,0,0,0,0,0,0,0,0,0,0,0,0,0,0,0,0,0,0,0,0,0,0,0,0,0,0,0,0,0,0,0,0,0,0,0,0,0,0,0,0,0,0,0,0,0,0,0,0,0,0,0,0,0,0,0,0,0,0,0,0,0,0,0,0,0,0,0,0,0,0,0,0,0,0,0,0,0,0,0,0,0,0,0,0,0,0,0,0,2,5,7,7,11,12,11,14,15,20,20,25,30,35,35,40,45,45,50,50,55,55,55,60,60,65,65,65,65,70,70,75,80,80,80,85,85,85,85,85,80,80,80,80,75,75,75,75,70,65,65,65,65,70,70,70,75,75,75,75,75,75,75,70,70,70,70,70,70,70,70,70,65,65,65,60,60,55,55,50,50,50,45,45,45,45,45,45,40,40,35,35,40,40,45,55,60,65,70,70,70,65,65,75,120,135,140,140,140,140,135,135,160,150,140,140,150,160,160,150,150,150,150,150,140,150,150,150,150,160,160,160,160,150,150,140,140,130,130,130,120,120,120,120,120,120,140,140,130,120,120,120,110,100,100,100,100,140,130,140,140,140,145,150,160,160,150,145,145,140,140,130,120,110,110,120,120,110,110,100,100,100,100,105,105,100,100,100,105,90,90,90,90,90,80,80,80,70,64,62,56,52,50,48,44,41,37,35,33,29,29,27,25,24,22,20,11,8,3,2,2,1,3,2,0,0,0,0,0,0,0,0,0,0,0,0,0,0,0,0,0,10,15,15,5,5,0,0,0,0,0,0,0,0,0,0,0,0,0,0,0,0,0,0,0,0,0,0,15,50,90,90,90,90,100,90,80,70,60,60,50,50,40,40,40,40,40,40,30,35,35,30,25,30,30,35,35,35,35,35,35,30,30,30,40,50,60,60,65,70,75,75,75,80,80,80,80,75,75,75,75,90,100,95,95,95,95,90,85,80,80,75,75,70,75,75,75,70,65,65,60,60,55,55,45,35,35,30,20,10,5,5,5,0,0,0,0,0,0,0,0,0,0,0,0,0,0,0,0,0,0,0,1,2,0,0,0,0,0,8,7,12,11,11,10,10,5,5,5,5,5,0,5,5,5,5,5,5,5,0,0,0,0,0
0,0,0,0,0,0,0,0,0,0,0,0,0,0,0,0,0,0,0,0,0,0,0,0,0,0,0,0,0,0,0,0,0,0,0,0,0,0,0,0,0,0,0,0,0,0,0,0,0,0,0,0,0,0,0,0,0,0,0,0,0,0,0,0,0,0,0,0,0,0,0,0,0,0,0,0,0,0,0,0,0,0,0,0,0,0,0,0,0,0,0,0,0,0,0,0,0,0,0,0,0,0,0,0,0,0,0,0,0,0,0,0,0,0,0,0,0,0,0,0,0,0,0,0,0,0,0,0,0,0,0,0,0,0,2,7,7,9,10,10,10,10,15,20,20,25,30,30,35,40,45,45,50,50,55,55,55,60,60,65,65,65,65,65,70,75,75,80,80,85,85,90,90,90,85,85,85,80,80,80,75,80,75,75,70,65,65,65,70,70,70,75,75,75,75,75,75,75,75,75,75,75,75,75,75,75,70,70,70,65,65,60,60,55,55,50,45,45,45,45,45,45,45,40,35,35,35,40,45,50,55,60,55,60,55,60,60,60,85,120,130,140,140,140,130,135,150,150,130,140,150,160,160,150,150,150,150,140,150,150,160,160,160,160,160,160,150,150,150,140,140,130,130,130,120,120,120,120,120,130,140,140,130,120,125,125,120,110,110,100,120,140,130,145,145,145,145,150,150,150,150,150,145,145,140,130,120,120,110,120,120,110,100,100,100,100,100,105,100,100,100,100,105,90,90,90,90,90,80,80,80,70,60,61,57,53,51,49,44,40,37,36,33,30,29,28,26,25,23,21,17,7,2,2,2,3,4,3,0,0,0,0,0,0,0,0,0,0,0,0,0,0,0,0,1,8,11,10,5,0,0,0,0,0,0,0,0,0,0,0,0,0,0,0,0,0,0,0,0,0,0,0,10,60,90,90,90,90,90,80,70,70,60,50,40,40,40,40,40,40,40,40,40,40,40,35,35,30,30,30,30,35,35,35,35,30,35,25,35,45,45,55,60,70,70,70,75,75,75,80,80,80,75,75,80,85,95,95,95,95,90,90,85,85,80,75,70,70,70,75,75,75,70,70,65,65,60,60,55,40,40,35,30,15,10,5,5,0,0,0,0,0,0,0,0,0,0,0,0,0,0,0,0,0,0,0,0,0,0,0,0,0,5,10,12,12,11,11,10,5,0,0,0,5,5,5,0,0,0,0,0,5,5,5,0,0,0,0
0,0,0,0,0,0,0,0,0,0,0,0,0,0,0,0,0,0,0,0,0,0,0,0,0,0,0,0,0,0,0,0,0,0,0,0,0,0,0,0,0,0,0,0,0,0,0,0,0,0,0,0,0,0,0,0,0,0,0,0,0,0,0,0,0,0,0,0,0,0,0,0,0,0,0,0,0,0,0,0,0,0,0,0,0,0,0,0,0,0,0,0,0,0,0,0,0,0,0,0,0,0,0,0,0,0,0,0,0,0,0,0,0,0,0,0,0,0,0,0,0,0,0,0,0,0,0,0,0,0,0,0,0,1,5,7,7,10,11,12,12,10,15,15,20,25,25,30,35,40,45,45,50,50,50,55,55,60,60,65,65,65,65,65,70,75,75,80,80,85,85,90,90,90,90,90,90,85,85,80,80,80,80,80,75,70,65,65,70,70,70,70,75,75,75,75,75,75,75,75,75,75,75,75,75,75,75,75,70,70,70,65,60,60,55,55,50,45,45,45,45,45,45,40,35,35,35,40,45,45,50,50,50,45,50,55,50,50,60,85,115,125,140,130,130,130,135,135,130,130,140,150,135,150,150,150,150,150,150,150,160,160,160,160,160,150,150,150,150,140,140,130,130,130,130,120,120,120,120,130,140,130,120,120,125,125,120,110,110,110,140,140,145,145,145,145,150,150,150,150,150,150,150,145,140,130,130,120,120,110,110,110,100,100,100,100,100,105,105,100,100,100,105,100,100,90,90,90,90,80,70,70,61,60,59,52,51,49,45,41,38,36,34,32,29,29,27,22,22,22,18,5,4,5,4,3,4,3,0,0,0,0,0,0,0,0,0,0,0,0,0,0,0,0,5,8,8,5,0,0,0,0,0,0,0,0,0,0,0,0,0,0,0,0,0,0,0,0,0,0,0,0,10,80,90,90,90,90,90,80,70,60,50,40,30,30,40,40,40,40,40,40,40,40,40,35,35,35,35,35,35,30,35,35,35,35,35,30,30,35,45,40,55,60,70,70,70,70,75,75,80,80,80,80,85,90,95,95,95,95,90,85,85,85,80,75,75,75,70,75,75,75,70,70,70,65,65,60,60,55,50,45,30,20,15,10,5,0,0,0,0,0,0,0,0,0,0,0,0,0,0,0,0,0,0,0,0,0,0,0,0,0,5,5,5,5,11,5,0,0,0,0,0,5,5,5,0,0,0,0,0,0,0,0,5,0,0,0
0,0,0,0,0,0,0,0,0,0,0,0,0,0,0,0,0,0,0,0,0,0,0,0,0,0,0,0,0,0,0,0,0,0,0,0,0,0,0,0,0,0,0,0,0,0,0,0,0,0,0,0,0,0,0,0,0,0,0,0,0,0,0,0,0,0,0,0,0,0,0,0,0,0,0,0,0,0,0,0,0,0,0,0,0,0,0,0,0,0,0,0,0,0,0,0,0,0,0,0,0,0,0,0,0,0,0,0,0,0,0,0,0,0,0,0,0,0,0,0,0,0,0,0,0,0,0,0,0,0,0,0,0,0,5,7,7,10,10,11,10,10,15,15,20,20,25,30,35,35,40,45,45,50,50,55,55,60,60,60,65,65,65,65,65,70,70,75,80,80,85,85,90,85,75,95,90,90,85,85,80,80,85,85,80,75,70,70,70,70,70,70,75,75,75,75,75,75,75,75,75,75,75,75,75,75,75,75,75,75,70,70,65,65,60,60,55,50,45,45,45,45,45,45,40,35,35,40,40,45,45,45,45,45,50,50,45,45,50,55,85,115,125,125,125,130,130,135,135,120,120,135,150,165,150,150,150,150,160,160,160,160,165,160,160,150,145,150,150,140,140,140,130,135,130,130,120,120,120,130,130,125,120,125,125,125,120,120,120,120,120,130,140,150,150,150,150,155,155,150,150,150,150,145,140,135,130,130,120,110,115,110,105,100,100,105,100,105,105,105,110,110,105,105,100,100,95,90,80,75,75,70,63,60,59,52,51,49,46,42,39,36,34,32,31,29,29,24,23,22,22,5,4,4,1,1,1,1,0,0,0,0,0,0,0,0,0,0,0,0,0,0,0,0,3,6,1,0,0,0,0,0,0,0,0,0,0,0,0,0,0,0,0,0,0,0,0,0,0,0,0,0,5,50,90,90,90,90,90,80,70,60,50,20,20,20,30,30,30,30,30,30,40,40,40,35,35,35,35,35,35,35,30,30,35,35,35,30,30,30,40,45,40,50,65,70,70,70,75,75,75,80,80,85,90,95,95,95,95,95,90,85,85,85,80,80,75,75,70,70,70,75,70,70,70,70,65,65,60,60,60,50,45,30,15,10,5,0,0,0,0,0,0,0,0,0,0,0,0,0,0,0,0,0,0,0,0,0,0,0,0,0,0,5,0,0,5,2,0,0,0,0,5,5,5,5,0,0,0,0,0,0,0,0,0,0,0,0
0,0,0,0,0,0,0,0,0,0,0,0,0,0,0,0,0,0,0,0,0,0,0,0,0,0,0,0,0,0,0,0,0,0,0,0,0,0,0,0,0,0,0,0,0,0,0,0,0,0,0,0,0,0,0,0,0,0,0,0,0,0,0,0,0,0,0,0,0,0,0,0,0,0,0,0,0,0,0,0,0,0,0,0,0,0,0,0,0,0,0,0,0,0,0,0,0,0,0,0,0,0,0,0,0,0,0,0,0,0,0,0,0,0,0,0,0,0,0,0,0,0,0,0,0,0,0,0,0,0,0,0,0,0,5,7,9,10,9,9,10,10,15,15,20,20,25,30,30,35,40,45,45,45,50,50,55,60,60,60,65,65,65,65,65,65,65,70,75,75,80,75,75,75,75,75,95,90,90,85,85,80,85,85,85,75,70,70,70,70,70,70,70,75,75,75,75,75,75,75,75,75,75,75,75,75,75,75,75,75,75,75,70,70,65,65,60,55,50,50,45,45,45,45,40,35,35,35,35,40,40,40,40,40,40,45,45,45,45,45,45,60,90,125,125,125,135,135,135,115,110,120,145,170,160,150,150,150,160,165,165,165,170,160,155,145,145,145,145,140,140,140,130,135,135,130,130,120,130,125,130,125,120,125,125,125,125,125,115,115,115,125,150,155,160,155,155,155,155,150,155,155,150,150,145,140,135,130,125,120,115,110,105,100,105,105,100,105,110,110,110,110,110,105,100,95,90,80,75,75,75,70,62,59,57,52,50,48,46,43,39,36,34,32,29,28,25,24,22,22,22,19,7,1,1,1,1,0,0,0,0,0,0,0,0,0,0,0,0,0,0,0,0,0,1,1,0,0,0,0,0,0,0,0,0,0,0,0,0,0,0,0,0,0,0,0,0,0,0,0,0,0,5,50,90,90,90,90,80,70,70,60,40,15,15,20,20,20,20,30,30,30,30,35,35,35,35,35,35,35,35,35,30,30,35,30,30,30,30,30,35,45,40,45,55,70,70,70,70,75,80,80,80,85,90,90,90,95,95,95,95,90,85,85,80,80,75,75,70,70,70,70,70,70,70,70,70,65,65,60,60,55,50,40,25,15,10,5,5,0,0,0,0,0,0,0,0,0,0,0,0,0,0,0,0,0,0,0,0,0,0,0,0,0,0,0,0,2,1,0,0,0,5,5,0,0,0,0,0,0,0,0,0,0,0,0,0,0
0,0,0,0,0,0,0,0,0,0,0,0,0,0,0,0,0,0,0,0,0,0,0,0,0,0,0,0,0,0,0,0,0,0,0,0,0,0,0,0,0,0,0,0,0,0,0,0,0,0,0,0,0,0,0,0,0,0,0,0,0,0,0,0,0,0,0,0,0,0,0,0,0,0,0,0,0,0,0,0,0,0,0,0,0,0,0,0,0,0,0,0,0,0,0,0,0,0,0,0,0,0,0,0,0,0,0,0,0,0,0,0,0,0,0,0,0,0,0,0,0,0,0,0,0,0,0,0,0,0,0,0,0,0,3,7,8,10,9,10,10,11,15,15,15,20,25,25,30,35,40,45,45,45,50,50,55,55,60,60,60,65,65,65,65,65,65,65,70,70,75,75,70,70,70,70,75,90,90,90,85,85,85,85,85,80,75,70,70,70,70,70,65,65,70,75,75,80,75,75,75,75,75,75,75,75,80,80,80,75,75,75,75,70,70,65,65,60,55,55,50,45,45,45,40,35,35,35,35,35,35,35,40,40,40,40,40,40,40,40,40,45,60,125,125,125,135,135,125,100,115,125,155,170,155,150,150,160,165,170,170,165,165,155,150,145,145,155,150,145,140,140,140,145,135,135,135,120,130,125,130,120,120,125,130,130,125,125,115,115,115,125,140,155,160,160,160,160,155,155,155,155,150,150,145,140,135,130,125,120,115,105,105,105,105,105,105,105,110,115,115,115,110,105,100,95,85,80,75,75,75,70,63,58,56,55,50,48,47,44,39,36,35,33,29,26,28,26,24,23,20,19,5,2,1,1,1,1,0,0,0,0,0,0,0,0,0,0,0,0,0,0,0,0,0,0,0,0,0,0,0,0,0,0,0,0,0,0,0,0,0,0,0,0,0,0,0,0,0,0,0,0,5,70,90,90,90,90,80,70,70,50,40,15,10,15,15,15,20,15,30,30,30,25,25,30,30,30,30,35,35,30,30,30,30,30,30,30,30,30,35,40,50,45,40,55,65,70,75,75,80,85,85,85,90,90,95,90,95,95,90,90,85,80,80,80,75,70,70,70,70,65,65,70,70,70,70,65,65,60,60,60,55,45,35,25,20,15,10,5,5,0,0,0,0,0,0,0,0,0,0,0,0,0,0,0,0,0,0,0,0,0,0,0,0,0,0,0,1,0,0,0,0,0,0,0,0,0,0,0,0,0,0,0,0,0,0,0
0,0,0,0,0,0,0,0,0,0,0,0,0,0,0,0,0,0,0,0,0,0,0,0,0,0,0,0,0,0,0,0,0,0,0,0,0,0,0,0,0,0,0,0,0,0,0,0,0,0,0,0,0,0,0,0,0,0,0,0,0,0,0,0,0,0,0,0,0,0,0,0,0,0,0,0,0,0,0,0,0,0,0,0,0,0,0,0,0,0,0,0,0,0,0,0,0,0,0,0,0,0,0,0,0,0,0,0,0,0,0,0,0,0,0,0,0,0,0,0,0,0,0,0,0,0,0,0,0,0,0,0,0,0,1,6,6,8,8,10,11,11,10,15,15,20,25,25,30,35,35,40,45,45,45,50,55,55,60,60,60,60,65,65,65,65,65,65,65,65,70,70,70,70,70,70,75,80,90,90,85,85,85,80,80,80,75,75,70,70,70,70,65,65,65,70,75,80,80,80,80,75,75,75,75,75,80,80,80,75,75,75,75,75,70,70,70,65,60,60,55,50,45,40,40,35,30,35,35,30,30,35,35,40,35,40,40,35,40,40,40,40,50,120,120,125,135,135,125,110,120,140,160,155,155,160,160,165,165,180,170,165,160,160,150,145,145,160,155,145,140,140,145,145,140,135,130,130,130,125,125,120,125,130,130,130,125,125,115,115,115,115,150,155,160,165,165,165,160,160,155,155,155,155,145,140,135,125,125,120,115,105,105,105,105,105,105,110,115,120,120,120,110,100,95,90,85,75,75,75,70,70,70,59,56,56,53,47,46,43,40,38,36,33,29,28,28,26,24,22,20,17,17,6,1,1,1,1,1,0,0,0,0,0,0,0,0,0,0,0,0,0,0,0,0,0,0,0,0,0,0,0,0,0,0,0,0,0,0,0,0,0,0,0,0,0,0,0,0,0,0,5,60,80,80,90,90,90,80,70,60,50,30,20,5,5,5,5,10,15,20,20,10,15,10,20,20,20,20,30,30,30,35,30,30,30,30,30,30,30,35,45,50,40,35,45,55,65,75,80,85,85,90,90,90,90,90,90,90,90,90,85,85,80,75,75,75,70,70,70,65,65,65,65,70,70,70,65,65,60,60,55,55,55,45,40,35,25,20,10,5,5,5,0,0,0,0,0,0,0,0,0,0,0,0,0,0,0,0,0,0,0,0,0,0,0,0,0,0,0,0,0,0,0,0,0,0,0,0,0,0,0,0,0,0,0,0,0
0,0,0,0,0,0,0,0,0,0,0,0,0,0,0,0,0,0,0,0,0,0,0,0,0,0,0,0,0,0,0,0,0,0,0,0,0,0,0,0,0,0,0,0,0,0,0,0,0,0,0,0,0,0,0,0,0,0,0,0,0,0,0,0,0,0,0,0,0,0,0,0,0,0,0,0,0,0,0,0,0,0,0,0,0,0,0,0,0,0,0,0,0,0,0,0,0,0,0,0,0,0,0,0,0,0,0,0,0,0,0,0,0,0,0,0,0,0,0,0,0,0,0,0,0,0,0,0,0,0,0,0,0,0,0,1,5,6,6,5,10,11,10,15,15,20,20,25,30,30,35,40,45,45,45,50,50,55,60,60,60,60,60,65,65,65,65,65,65,65,65,65,70,70,70,70,70,75,90,90,90,90,85,85,80,80,80,75,75,70,70,70,65,65,60,60,65,75,75,80,80,75,75,75,75,75,75,80,80,80,80,75,75,75,75,75,70,70,65,65,60,55,50,45,40,40,35,30,30,30,25,30,35,35,35,40,40,35,35,35,40,40,45,105,120,125,135,125,120,120,135,150,160,155,160,160,160,165,175,180,165,160,160,160,150,145,160,160,150,140,140,140,145,145,140,135,130,130,125,125,130,125,125,125,125,125,125,125,125,125,115,115,145,160,160,160,165,165,165,165,160,155,160,155,150,140,135,130,125,120,110,105,105,110,105,100,105,115,120,125,125,120,105,100,95,90,80,75,75,75,70,70,63,65,58,56,51,46,45,43,41,38,36,34,32,29,28,27,25,23,20,19,18,11,11,1,1,1,0,0,0,0,0,0,0,0,0,0,0,0,0,0,0,0,0,0,0,0,0,0,0,0,0,0,0,0,0,0,0,0,0,0,0,0,0,0,0,0,0,0,0,10,60,90,80,90,90,80,70,60,50,40,30,15,10,5,5,0,5,5,5,5,5,5,0,5,5,10,15,5,20,30,30,35,35,30,30,30,30,30,40,50,55,40,35,40,50,70,75,80,85,85,90,90,95,95,95,95,90,90,85,85,80,75,75,75,75,75,70,70,65,65,65,65,65,65,65,65,65,60,60,60,55,55,55,50,45,40,30,20,15,10,5,5,0,0,0,0,0,0,0,0,0,0,0,0,0,0,0,0,0,0,0,0,0,0,0,0,0,0,0,0,0,0,0,0,0,0,0,0,0,0,0,0,0,0,0,0
0,0,0,0,0,0,0,0,0,0,0,0,0,0,0,0,0,0,0,0,0,0,0,0,0,0,0,0,0,0,0,0,0,0,0,0,0,0,0,0,0,0,0,0,0,0,0,0,0,0,0,0,0,0,0,0,0,0,0,0,0,0,0,0,0,0,0,0,0,0,0,0,0,0,0,0,0,0,0,0,0,0,0,0,0,0,0,0,0,0,0,0,0,0,0,0,0,0,0,0,0,0,0,0,0,0,0,0,0,0,0,0,0,0,0,0,0,0,0,0,0,0,0,0,0,0,0,0,0,0,0,0,0,0,0,1,2,3,4,6,10,10,10,10,15,20,20,25,25,30,35,40,45,45,45,50,50,55,55,60,60,60,60,60,65,65,65,65,65,65,65,65,65,70,70,70,70,70,75,80,90,90,90,85,85,80,80,80,75,75,70,70,70,70,65,60,55,55,50,65,75,75,75,75,75,75,75,80,80,80,80,75,75,75,75,75,75,70,70,70,65,60,55,50,45,45,45,40,35,35,35,40,40,35,35,35,35,35,35,35,40,40,45,90,120,125,125,120,120,135,145,155,155,165,165,155,160,170,175,180,165,165,165,165,160,160,165,155,145,140,140,140,145,140,135,130,130,130,135,135,130,125,125,120,120,125,125,125,125,125,115,115,130,155,160,160,165,165,170,170,165,160,160,155,150,145,140,130,130,125,115,110,110,110,100,105,110,115,125,125,125,120,100,95,90,85,75,75,75,75,70,70,63,66,61,58,54,48,46,44,42,40,36,34,32,31,29,28,26,24,20,19,17,15,15,2,2,2,1,0,0,0,0,0,0,0,0,0,0,0,0,0,0,0,0,0,0,0,0,0,0,0,0,0,0,0,0,0,0,0,0,0,0,0,0,0,0,0,0,0,5,50,90,90,80,80,80,80,60,50,40,30,20,10,5,5,5,0,0,0,0,0,0,0,0,0,0,0,0,0,10,15,30,35,35,35,35,35,35,35,40,50,55,40,35,35,60,75,80,80,85,85,85,85,90,95,95,95,90,90,85,80,75,75,75,75,75,75,70,70,65,65,65,65,65,65,65,65,60,60,60,60,55,55,55,50,50,45,40,35,25,15,5,5,5,0,0,0,0,0,0,0,0,0,0,0,0,0,0,0,0,0,0,0,0,0,0,0,0,0,0,0,0,0,0,0,0,0,0,0,0,0,0,0,0,0,0,0
0,0,0,0,0,0,0,0,0,0,0,0,0,0,0,0,0,0,0,0,0,0,0,0,0,0,0,0,0,0,0,0,0,0,0,0,0,0,0,0,0,0,0,0,0,0,0,0,0,0,0,0,0,0,0,0,0,0,0,0,0,0,0,0,0,0,0,0,0,0,0,0,0,0,0,0,0,0,0,0,0,0,0,0,0,0,0,0,0,0,0,0,0,0,0,0,0,0,0,0,0,0,0,0,0,0,0,0,0,0,0,0,0,0,0,0,0,0,0,0,0,0,0,0,0,0,0,0,0,0,0,0,0,0,0,0,1,3,5,6,10,10,10,10,15,15,20,25,25,30,35,40,45,45,45,50,50,55,55,55,60,60,60,60,60,60,65,65,65,65,65,65,65,65,65,70,70,70,70,70,80,90,95,90,85,85,80,80,80,75,75,70,70,70,70,65,60,55,50,50,55,75,75,75,75,75,75,75,75,75,75,75,75,75,75,75,75,75,70,70,65,65,60,55,55,50,50,45,45,45,40,40,40,40,40,35,35,35,35,35,40,40,45,80,105,120,125,120,130,140,145,150,150,155,150,145,165,170,180,165,160,160,165,165,160,160,160,150,145,145,140,140,140,140,135,135,130,130,140,140,135,130,125,125,120,120,125,125,125,125,115,115,115,140,160,160,165,165,170,170,165,165,160,155,155,145,135,135,130,125,120,115,115,110,105,110,115,120,125,130,130,105,95,95,85,75,70,75,75,75,70,70,63,64,61,55,52,49,45,44,40,38,36,34,32,30,29,29,27,25,20,19,18,14,12,5,3,2,1,0,0,0,0,0,0,0,0,0,0,0,0,0,0,0,0,0,0,0,0,0,0,0,0,0,0,0,0,0,0,0,0,0,0,0,0,0,0,0,0,0,5,70,90,90,80,80,80,70,50,30,30,20,10,5,0,0,0,0,0,0,0,0,0,0,0,0,0,0,0,0,5,20,30,35,35,35,35,35,35,35,35,40,55,55,45,45,65,75,80,85,85,85,85,85,85,90,95,95,95,90,85,80,75,75,75,75,75,75,75,70,70,65,65,65,65,65,60,60,60,60,60,55,55,55,55,50,50,45,45,40,30,25,15,10,5,5,5,5,0,0,0,0,0,0,0,0,0,0,0,0,0,0,0,0,0,0,0,0,0,0,0,0,0,0,0,0,0,0,0,0,0,0,0,0,0,0,0,0
0,0,0,0,0,0,0,0,0,0,0,0,0,0,0,0,0,0,0,0,0,0,0,0,0,0,0,0,0,0,0,0,0,0,0,0,0,0,0,0,0,0,0,0,0,0,0,0,0,0,0,0,0,0,0,0,0,0,0,0,0,0,0,0,0,0,0,0,0,0,0,0,0,0,0,0,0,0,0,0,0,0,0,0,0,0,0,0,0,0,0,0,0,0,0,0,0,0,0,0,0,0,0,0,0,0,0,0,0,0,0,0,0,0,0,0,0,0,0,0,0,0,0,0,0,0,0,0,0,0,0,0,0,0,0,0,1,3,7,9,10,12,10,10,10,15,20,25,30,35,35,40,40,45,45,45,50,50,55,55,60,60,60,60,60,60,65,65,65,65,65,65,65,65,65,65,65,65,65,65,70,80,95,95,90,85,80,80,80,80,75,75,70,70,70,65,60,55,55,50,50,55,70,75,75,75,75,75,75,75,75,75,80,80,75,75,75,75,75,70,70,65,65,60,60,55,50,50,50,50,45,45,40,40,40,40,40,35,35,35,40,40,45,75,105,120,120,125,135,140,140,140,140,140,135,140,160,170,175,165,160,160,160,165,165,160,155,150,150,150,145,140,140,140,140,135,130,135,140,140,135,130,130,125,120,125,125,125,125,115,115,110,110,115,145,160,160,165,165,170,170,165,165,160,155,145,140,135,130,125,120,115,115,115,110,115,115,120,130,130,120,110,95,95,80,70,70,75,75,75,70,70,65,64,61,57,53,45,44,43,41,39,35,33,32,30,30,28,26,24,21,19,18,14,9,3,2,2,1,0,0,0,0,0,0,0,0,0,0,0,0,0,0,0,0,0,0,0,0,0,0,0,0,0,0,0,0,0,0,0,0,0,0,0,0,0,0,0,0,5,10,80,90,80,80,80,70,50,40,30,20,10,5,0,0,0,0,0,0,0,0,0,0,0,0,0,0,0,0,0,10,15,25,30,35,35,35,35,35,35,40,40,50,60,55,65,70,80,90,90,90,90,85,85,85,90,95,95,95,90,90,85,80,80,80,75,75,75,75,75,70,65,65,65,65,60,60,60,55,55,55,55,55,50,50,50,50,45,45,40,35,30,20,15,10,10,5,5,5,0,0,0,0,0,0,0,0,0,0,0,0,0,0,0,0,0,0,0,0,0,0,0,0,0,0,0,0,0,0,0,0,0,0,0,0,0,0,0
0,0,0,0,0,0,0,0,0,0,0,0,0,0,0,0,0,0,0,0,0,0,0,0,0,0,0,0,0,0,0,0,0,0,0,0,0,0,0,0,0,0,0,0,0,0,0,0,0,0,0,0,0,0,0,0,0,0,0,0,0,0,0,0,0,0,0,0,0,0,0,0,0,0,0,0,0,0,0,0,0,0,0,0,0,0,0,0,0,0,0,0,0,0,0,0,0,0,0,0,0,0,0,0,0,0,0,0,0,0,0,0,0,0,0,0,0,0,0,0,0,0,0,0,0,0,0,0,0,0,0,0,0,0,0,0,1,5,7,8,8,10,10,10,15,15,20,25,30,35,35,40,40,45,45,45,50,50,50,55,55,55,60,60,60,60,65,65,65,65,65,65,65,65,65,65,65,65,65,65,70,75,90,95,95,90,85,85,85,80,80,75,75,70,70,70,65,60,55,55,55,50,55,70,75,75,75,75,75,75,75,75,80,80,80,75,75,75,75,75,70,70,65,65,60,60,55,55,50,50,50,50,45,40,40,40,40,40,35,40,40,40,45,70,95,110,120,130,135,135,130,135,135,135,135,160,170,180,170,160,155,155,160,165,170,165,155,150,155,155,150,145,145,150,145,135,135,135,140,140,140,135,130,125,120,125,125,125,125,115,115,110,110,110,130,155,165,165,165,170,170,170,165,160,150,145,140,135,130,130,125,120,120,120,115,120,120,125,135,135,125,105,90,90,85,75,75,75,75,75,70,65,65,64,60,54,53,48,45,44,41,38,34,34,32,30,31,28,26,25,22,20,18,14,13,3,1,1,1,0,0,0,0,0,0,0,0,0,0,0,0,0,0,0,0,0,0,0,0,0,0,0,0,0,0,0,0,0,0,0,0,0,0,0,0,0,0,0,0,0,5,80,80,80,80,70,60,40,30,20,10,5,0,0,0,0,0,0,0,0,0,0,0,0,0,0,0,0,0,0,5,15,25,30,35,40,40,40,40,40,40,45,45,60,65,75,75,80,85,90,90,90,85,85,85,85,90,95,95,95,90,85,85,80,75,75,75,75,75,75,70,65,65,65,65,65,60,60,60,55,55,55,55,50,50,45,45,45,35,35,35,30,25,20,15,15,10,10,5,5,0,0,0,0,0,0,0,0,0,0,0,0,0,0,0,0,0,0,0,0,0,0,0,0,0,0,0,0,0,0,0,0,0,0,0,0,0,0
0,0,0,0,0,0,0,0,0,0,0,0,0,0,0,0,0,0,0,0,0,0,0,0,0,0,0,0,0,0,0,0,0,0,0,0,0,0,0,0,0,0,0,0,0,0,0,0,0,0,0,0,0,0,0,0,0,0,0,0,0,0,0,0,0,0,0,0,0,0,0,0,0,0,0,0,0,0,0,0,0,0,0,0,0,0,0,0,0,0,0,0,0,0,0,0,0,0,0,0,0,0,0,0,0,0,0,0,0,0,0,0,0,0,0,0,0,0,0,0,0,0,0,0,0,0,0,0,0,0,0,0,0,0,0,0,1,4,7,9,10,11,10,10,15,15,20,25,30,35,35,40,40,40,45,45,45,50,50,50,50,50,55,60,60,60,65,65,65,65,65,65,65,65,65,65,65,70,70,70,70,75,80,90,95,90,90,85,85,80,80,75,75,75,70,70,70,65,60,60,60,60,60,60,60,70,75,75,75,75,75,75,80,80,80,75,75,75,75,75,75,70,70,65,65,60,60,55,55,50,50,50,50,45,40,40,40,40,40,40,40,40,45,60,95,110,120,130,130,130,125,135,135,130,135,140,165,170,165,155,150,155,165,170,170,165,160,150,150,155,150,150,150,155,145,140,135,140,145,140,135,135,130,130,125,125,125,125,125,115,115,110,110,110,115,140,165,170,165,170,170,170,165,155,150,145,140,135,135,130,130,125,125,120,120,130,130,130,135,130,115,105,95,90,90,80,75,75,75,70,65,60,60,65,61,56,53,47,45,44,42,40,36,34,30,30,30,28,26,25,22,20,19,14,9,3,0,0,0,0,0,0,0,0,0,0,0,0,0,0,0,0,0,0,0,0,0,0,0,0,0,0,0,0,0,0,0,0,0,0,0,0,0,0,0,0,0,0,0,5,60,80,80,80,80,60,50,30,20,5,5,0,0,0,0,0,0,0,0,0,0,0,0,0,0,0,0,0,0,0,5,10,20,30,40,40,40,40,40,40,45,50,60,70,75,80,80,85,90,90,90,90,85,85,80,80,80,85,95,95,90,90,85,80,75,70,70,70,70,70,70,70,65,65,65,65,60,60,60,55,55,55,55,50,50,45,45,45,35,40,40,30,30,25,20,20,15,10,10,5,5,0,0,0,0,0,0,0,0,0,0,0,0,0,0,0,0,0,0,0,0,0,0,0,0,0,0,0,0,0,0,0,0,0,0,0,0,0
0,0,0,0,0,0,0,0,0,0,0,0,0,0,0,0,0,0,0,0,0,0,0,0,0,0,0,0,0,0,0,0,0,0,0,0,0,0,0,0,0,0,0,0,0,0,0,0,0,0,0,0,0,0,0,0,0,0,0,0,0,0,0,0,0,0,0,0,0,0,0,0,0,0,0,0,0,0,0,0,0,0,0,0,0,0,0,0,0,0,0,0,0,0,0,0,0,0,0,0,0,0,0,0,0,0,0,0,0,0,0,0,0,0,0,0,0,0,0,0,0,0,0,0,0,0,0,0,0,0,0,0,0,0,0,0,2,5,8,9,10,10,10,10,15,20,20,25,30,35,35,40,40,40,40,45,45,45,50,50,45,45,50,55,60,60,60,65,65,65,65,65,65,65,65,65,70,70,70,70,70,75,75,85,90,90,90,90,85,80,80,75,75,75,70,70,70,70,65,65,65,65,65,65,65,65,65,70,75,75,75,75,75,75,75,75,75,75,75,75,75,75,75,70,70,65,65,60,60,55,50,50,50,45,45,40,40,40,40,40,40,45,50,55,85,100,120,125,125,125,125,130,125,130,135,140,170,170,160,150,150,160,170,170,170,170,155,150,155,155,155,155,160,160,150,140,140,145,145,140,135,135,130,130,125,125,125,125,125,115,115,110,110,110,110,125,150,165,170,170,170,170,165,155,150,145,140,140,135,130,135,130,125,120,125,135,135,135,140,130,125,115,95,90,85,80,75,75,65,60,60,60,60,65,61,58,54,47,45,44,42,40,37,34,32,31,30,29,27,27,22,20,18,15,13,4,0,0,0,0,0,0,0,0,0,0,0,0,0,0,0,0,0,0,0,0,0,0,0,0,0,0,0,0,0,0,0,0,0,0,0,0,0,0,0,0,0,0,0,20,40,80,80,80,70,50,30,20,5,5,0,0,0,0,0,0,0,0,0,0,0,0,0,0,0,0,0,0,0,0,0,5,20,35,40,40,40,40,40,45,50,65,75,80,85,80,85,90,90,90,90,90,90,85,85,80,75,75,85,95,90,90,90,85,80,75,75,70,70,70,70,70,70,65,65,65,60,60,60,60,55,55,50,50,50,45,45,35,35,40,35,35,30,25,20,20,15,15,10,10,5,0,0,0,0,0,0,0,0,0,0,0,0,0,0,0,0,0,0,0,0,0,0,0,0,0,0,0,0,0,0,0,0,0,0,0,0,0
0,0,0,0,0,0,0,0,0,0,0,0,0,0,0,0,0,0,0,0,0,0,0,0,0,0,0,0,0,0,0,0,0,0,0,0,0,0,0,0,0,0,0,0,0,0,0,0,0,0,0,0,0,0,0,0,0,0,0,0,0,0,0,0,0,0,0,0,0,0,0,0,0,0,0,0,0,0,0,0,0,0,0,0,0,0,0,0,0,0,0,0,0,0,0,0,0,0,0,0,0,0,0,0,0,0,0,0,0,0,0,0,0,0,0,0,0,0,0,0,0,0,0,0,0,0,0,0,0,0,0,0,0,0,0,1,3,6,7,10,10,10,10,10,15,20,20,25,30,30,35,40,40,40,40,40,45,45,45,45,45,45,45,50,55,60,60,65,65,65,65,65,65,65,65,65,70,70,70,70,70,75,75,80,85,90,90,90,85,80,80,75,75,75,75,75,75,75,70,70,70,70,70,70,65,65,65,65,65,70,75,75,75,75,75,75,75,75,75,75,75,75,75,75,70,70,65,65,60,60,55,55,50,50,45,45,40,40,40,40,40,45,50,55,60,110,120,110,125,125,125,125,125,130,135,150,170,165,155,150,155,165,170,170,165,170,165,155,155,160,160,160,165,165,155,145,150,150,145,140,135,135,130,130,125,125,125,125,125,125,115,110,105,105,105,105,130,155,170,170,170,170,165,155,150,145,145,140,135,135,140,135,125,125,130,135,140,140,145,135,130,125,100,95,85,80,75,75,65,65,60,60,60,64,60,57,52,49,47,44,42,40,37,35,31,28,30,29,27,26,23,21,20,16,8,3,1,0,0,0,0,0,0,0,0,0,0,0,0,0,0,0,0,0,0,0,0,0,0,0,0,0,0,0,0,0,0,0,0,0,0,0,0,0,0,0,0,0,0,30,70,80,80,70,60,30,20,10,5,0,0,0,0,0,0,0,0,0,0,0,0,0,0,0,0,0,0,0,0,0,0,5,10,30,40,40,45,50,55,75,80,90,85,85,90,90,90,90,90,90,75,90,85,85,85,80,80,85,80,90,90,90,90,90,85,80,75,75,70,70,70,70,70,65,65,65,60,60,60,60,55,55,50,50,45,35,35,35,40,40,35,35,30,25,25,20,20,15,15,10,5,5,0,0,0,0,0,0,0,0,0,0,0,0,0,0,0,0,0,0,0,0,0,0,0,0,0,0,0,0,0,0,0,0,0,0,0,0
0,0,0,0,0,0,0,0,0,0,0,0,0,0,0,0,0,0,0,0,0,0,0,0,0,0,0,0,0,0,0,0,0,0,0,0,0,0,0,0,0,0,0,0,0,0,0,0,0,0,0,0,0,0,0,0,0,0,0,0,0,0,0,0,0,0,0,0,0,0,0,0,0,0,0,0,0,0,0,0,0,0,0,0,0,0,0,0,0,0,0,0,0,0,0,0,0,0,0,0,0,0,0,0,0,0,0,0,0,0,0,0,0,0,0,0,0,0,0,0,0,0,0,0,0,0,0,0,0,0,0,0,0,0,0,1,4,7,9,10,10,10,10,10,15,20,20,25,30,30,35,40,40,40,40,40,40,45,45,45,45,45,45,50,55,55,60,60,65,65,65,65,65,65,65,65,65,70,70,70,70,70,70,75,80,85,90,90,85,85,80,80,80,80,80,80,75,75,75,70,70,70,70,70,70,70,70,65,65,65,60,60,65,75,75,75,75,75,75,75,75,75,75,75,75,70,70,65,65,65,60,55,55,50,50,45,40,40,40,40,40,45,50,55,70,95,110,110,115,120,120,120,125,125,135,150,165,160,150,155,160,165,170,165,160,165,170,155,160,165,165,165,170,170,160,155,155,150,145,135,135,135,130,130,125,125,125,130,125,125,115,110,110,105,105,105,110,135,170,175,175,170,165,155,150,150,145,145,135,135,140,130,125,125,135,140,150,150,150,140,130,125,115,90,85,80,75,75,70,65,60,57,57,60,62,55,50,49,47,43,41,40,37,36,30,28,28,29,27,26,24,21,20,17,10,5,1,1,0,1,1,0,0,0,0,0,0,0,0,0,0,0,0,0,0,0,0,0,0,0,0,0,0,0,0,0,0,0,0,0,0,0,0,0,0,0,0,0,0,10,70,70,70,60,30,20,15,5,0,0,0,0,0,0,0,0,0,0,0,0,0,0,0,0,0,0,0,0,0,0,0,5,25,35,45,50,55,65,80,80,85,90,85,90,90,85,90,90,80,90,75,90,85,85,85,75,70,75,85,85,90,85,95,90,90,85,80,75,75,75,70,70,70,70,65,60,60,60,60,60,60,60,55,50,50,45,45,40,40,35,35,35,30,25,25,20,20,15,15,10,10,5,5,0,0,0,0,0,0,0,0,0,0,0,0,0,0,0,0,0,0,0,0,0,0,0,0,0,0,0,0,0,0,0,0,0,0,0
0,0,0,0,0,0,0,0,0,0,0,0,0,0,0,0,0,0,0,0,0,0,0,0,0,0,0,0,0,0,0,0,0,0,0,0,0,0,0,0,0,0,0,0,0,0,0,0,0,0,0,0,0,0,0,0,0,0,0,0,0,0,0,0,0,0,0,0,0,0,0,0,0,0,0,0,0,0,0,0,0,0,0,0,0,0,0,0,0,0,0,0,0,0,0,0,0,0,0,0,0,0,0,0,0,0,0,0,0,0,0,0,0,0,0,0,0,0,0,0,0,0,0,0,0,0,0,0,0,0,0,0,0,0,0,2,6,7,10,10,10,10,10,10,15,20,20,25,30,30,35,40,40,40,40,40,40,45,45,45,45,45,50,50,50,55,50,55,60,65,65,65,65,65,65,65,65,65,65,65,65,65,65,70,75,80,85,85,85,85,85,85,80,80,80,80,80,80,75,70,70,75,75,75,75,70,70,70,70,65,65,60,60,65,65,70,70,75,75,75,75,75,75,75,75,75,70,70,70,65,65,60,60,55,50,50,45,40,40,40,40,45,50,65,70,85,85,95,105,110,115,120,125,130,135,150,160,155,150,155,160,165,170,160,155,160,165,160,165,170,170,170,175,175,170,165,160,155,140,135,135,135,135,130,125,125,130,130,130,125,115,115,110,110,105,105,110,130,160,175,175,170,160,155,150,150,145,145,140,135,135,130,125,130,135,140,155,160,145,135,130,120,110,95,85,80,75,75,65,65,60,57,57,60,60,51,51,49,49,44,42,40,37,35,33,29,29,29,28,26,25,22,20,19,11,9,3,1,0,1,0,0,0,0,0,0,0,0,0,0,0,0,0,0,0,0,0,0,0,0,0,0,0,0,0,0,0,0,0,0,0,0,0,0,0,0,0,0,5,40,60,60,60,40,30,15,5,0,0,0,0,0,0,0,0,0,0,0,0,0,0,0,0,0,0,0,0,0,0,0,0,5,25,40,50,60,70,75,80,85,90,90,90,85,85,85,85,80,80,65,75,70,85,85,70,55,50,45,70,85,90,85,85,85,85,85,85,80,75,75,70,70,70,70,70,65,65,60,60,60,60,60,55,55,50,50,45,45,40,40,35,35,30,25,25,20,20,15,15,15,10,5,5,0,0,0,0,0,0,0,0,0,0,0,0,0,0,0,0,0,0,0,0,0,0,0,0,0,0,0,0,0,0,0,0,0,0,0
0,0,0,0,0,0,0,0,0,0,0,0,0,0,0,0,0,0,0,0,0,0,0,0,0,0,0,0,0,0,0,0,0,0,0,0,0,0,0,0,0,0,0,0,0,0,0,0,0,0,0,0,0,0,0,0,0,0,0,0,0,0,0,0,0,0,0,0,0,0,0,0,0,0,0,0,0,0,0,0,0,0,0,0,0,0,0,0,0,0,0,0,0,0,0,0,0,0,0,0,0,0,0,0,0,0,0,0,0,0,0,0,0,0,0,0,0,0,0,0,0,0,0,0,0,0,0,0,0,0,0,0,0,0,0,2,7,9,10,10,10,10,10,15,20,20,20,25,30,30,35,40,40,40,40,40,40,45,45,45,45,45,50,50,45,45,45,50,55,60,65,65,65,65,65,65,65,65,65,65,65,65,65,65,70,75,80,90,90,90,90,85,85,85,80,80,80,80,75,75,75,75,75,75,75,75,75,70,70,70,65,65,60,60,60,65,65,70,75,75,75,75,75,75,75,75,75,75,70,70,65,65,60,60,55,50,45,40,40,40,40,45,50,60,80,80,75,70,100,110,115,120,125,130,140,150,155,150,150,155,160,165,165,160,155,160,160,160,165,170,170,175,180,180,175,170,160,155,145,140,140,140,140,130,125,130,130,130,130,125,115,115,115,110,110,105,110,115,155,165,175,170,160,155,150,150,145,145,135,130,130,125,125,130,140,145,160,160,140,130,125,115,110,95,90,80,75,70,65,60,60,57,57,57,57,52,51,50,49,45,42,40,38,36,34,32,30,28,29,26,24,23,22,19,15,9,8,1,2,1,0,0,0,0,0,0,0,0,0,0,0,0,0,0,0,0,0,0,0,0,0,0,0,0,0,0,0,0,0,0,0,0,0,0,0,0,0,0,5,40,60,60,50,30,20,5,0,0,0,0,0,0,0,0,0,0,0,0,0,0,0,0,0,0,0,0,0,0,0,0,0,5,15,45,60,65,70,75,80,85,85,80,85,80,80,75,65,55,60,60,60,60,65,65,45,40,40,45,45,50,80,80,80,80,85,85,85,80,80,75,70,70,70,70,65,65,65,60,60,60,60,60,55,55,50,50,45,45,40,40,35,35,30,30,25,25,20,15,15,15,10,5,5,0,0,0,0,0,0,0,0,0,0,0,0,0,0,0,0,0,0,0,0,0,0,0,0,0,0,0,0,0,0,0,0,0,0,0
0,0,0,0,0,0,0,0,0,0,0,0,0,0,0,0,0,0,0,0,0,0,0,0,0,0,0,0,0,0,0,0,0,0,0,0,0,0,0,0,0,0,0,0,0,0,0,0,0,0,0,0,0,0,0,0,0,0,0,0,0,0,0,0,0,0,0,0,0,0,0,0,0,0,0,0,0,0,0,0,0,0,0,0,0,0,0,0,0,0,0,0,0,0,0,0,0,0,0,0,0,0,0,0,0,0,0,0,0,0,0,0,0,0,0,0,0,0,0,0,0,0,0,0,0,0,0,0,0,0,0,0,0,0,1,3,8,9,10,8,10,10,10,15,20,20,20,25,30,30,35,40,40,40,40,40,40,45,45,45,45,50,50,50,45,45,45,45,45,55,60,65,65,70,70,70,65,65,65,65,65,65,65,70,70,75,75,80,80,80,90,85,85,85,85,80,80,80,80,75,75,80,80,80,80,75,75,75,70,70,65,65,60,60,60,60,65,70,70,75,75,75,75,75,75,75,75,75,75,70,70,70,65,65,60,55,45,45,40,40,40,45,50,60,70,75,75,70,85,105,120,125,125,130,140,150,155,150,150,160,160,165,165,155,160,160,160,155,160,170,170,175,175,180,175,170,160,155,150,140,140,145,140,135,130,135,135,135,130,125,115,115,115,115,110,110,110,125,150,170,170,165,160,155,150,150,145,140,130,125,115,115,115,135,140,150,160,150,135,130,120,115,105,100,90,85,75,70,65,60,57,57,57,58,57,53,51,50,49,47,44,40,38,36,34,30,31,26,28,27,25,23,21,19,15,11,8,6,5,1,0,0,0,0,0,0,0,0,0,0,0,0,0,0,0,0,0,0,0,0,0,0,0,0,0,0,0,0,0,0,0,0,0,0,0,0,0,5,10,60,60,50,40,20,15,5,0,0,0,0,0,0,0,0,0,0,0,0,0,0,0,0,0,0,0,0,0,0,0,0,0,5,25,45,55,60,65,70,60,50,55,65,65,55,55,50,45,45,45,45,50,55,60,50,30,25,30,30,35,35,65,80,75,75,75,80,80,80,80,75,70,70,65,65,65,65,65,60,60,60,60,60,55,55,50,50,45,45,40,40,35,35,30,30,25,25,20,20,15,15,10,10,5,0,0,0,0,0,0,0,0,0,0,0,0,0,0,0,0,0,0,0,0,0,0,0,0,0,0,0,0,0,0,0,0,0,0,0
